-0.14129822 -0.05434779 0.29139668 
-0.075736344 -0.20174308 -0.4891514 
-0.060789794 -0.08549677 -0.4986799 
-0.11098338 -0.07980969 -0.30242363 
0.0907283 -0.18833591 -0.39091763 
0.054430045 -0.17838508 -0.41552368 
0.05725604 -0.117494665 -0.12998357 
-0.09399203 0.089716606 0.040245373 
0.06401549 -0.16843672 -0.38720366 
0.103991784 -0.16513668 -0.42358875 
-0.008439081 0.19014803 -0.44367436 
-0.022839842 -0.093774416 0.3631923 
-0.18100794 -0.0072357045 0.105292685 
0.18499154 0.10953884 -0.4464057 
-0.14888224 0.010003879 0.33142856 
-0.03566137 -0.08094212 0.3665991 
-0.029471248 0.13647462 -0.31254166 
0.20236829 0.066009015 -0.47301492 
0.11838588 -0.061472375 0.14938203 
0.09372852 0.09135358 -0.013189869 
-0.11029499 -0.06630249 0.3522558 
-0.03335368 0.05821114 0.41430044 
0.07926148 -0.1828393 -0.40681466 
0.06635406 0.095270276 0.25198466 
-0.059797328 -0.08453448 0.25204805 
-0.09520932 0.1182507 -0.16239375 
0.14213213 0.093246445 -0.40935308 
-0.12982568 0.10303343 -0.49898314 
0.00343265 -0.12938692 -0.1797848 
0.09463789 0.104414195 -0.4941884 
0.18568867 -0.069518834 -0.38382915 
0.15599404 0.017901147 -0.24065068 
0.11725001 -0.05489145 -0.176583 
0.13141157 0.04894567 0.38619754 
0.121043906 0.04864065 0.12014157 
-0.008083746 0.15080513 -0.3074523 
-0.14883262 -0.020481968 0.3804835 
-0.2168781 0.01893703 0.18063281 
-0.022912066 -0.08433494 0.16167323 
-0.06795743 -0.15922756 -0.22381899 
0.11586058 -0.086648375 -0.23049515 
-0.11229591 0.051257882 0.39287254 
-0.099225044 0.15816464 -0.5013406 
0.14454433 0.030762173 -0.36039296 
0.11729593 0.17393859 -0.43560982 
-0.0833977 -0.053709157 0.19559357 
-0.19892822 -0.015415678 0.21123227 
0.1623962 0.01888576 0.16938707 
0.06874911 0.0035484207 0.45380247 
-0.10944625 0.099242575 -0.24788822 
0.07079994 -0.10550057 0.02494695 
-0.18241546 -0.05686538 0.1631442 
0.20268252 -0.08060428 -0.44927335 
-0.009883383 -0.10026861 0.284659 
-0.18071981 0.10888705 -0.08472691 
-0.15758333 -0.08099361 -0.042804077 
0.113482855 0.07774924 -0.30623403 
-0.027858546 0.116254345 0.026022613 
-0.06661747 -0.029383743 0.10889823 
0.10098306 -0.08628302 0.06046072 
-0.03891442 -0.08757789 -0.50008345 
-0.027856886 0.17775899 -0.40720063 
-0.10729363 -0.1772621 -0.43219304 
0.039892484 -0.09319028 0.2879006 
-0.15087496 -0.084012255 -0.4843864 
-0.002923138 -0.13320485 -0.20521395 
0.08295984 0.11470102 0.15442033 
0.013456819 0.15435022 -0.2862829 
-0.09320165 -0.13335675 -0.25611773 
0.1231386 -0.0967882 -0.2532292 
0.057092994 0.2027502 -0.43522546 
-0.030416606 0.10157391 0.15477943 
0.19051698 -0.03982276 0.24202016 
-0.057957307 -0.12456915 -0.494153 
-0.04215689 0.16655402 -0.37707373 
-0.0014049407 0.12597321 -0.12221035 
-0.16085237 0.006768419 -0.25947237 
0.13185227 -0.057512313 0.37768024 
-0.09221476 0.027430411 0.0703117 
0.09148159 0.11286297 0.20097281 
-0.11180376 0.07322569 -0.34453338 
0.11786158 -0.031059483 0.11967718 
0.136938 0.0006489112 0.4177828 
0.10028854 -0.08551981 -0.11832374 
-0.049509984 -0.13857734 0.07499452 
-0.12721874 -0.034896012 -0.17967497 
0.06904309 -0.1663359 -0.24764095 
-0.009679564 -0.0360867 0.19688496 
-0.04095029 0.19505665 -0.49942026 
0.032793865 0.121092945 -0.025661642 
0.14042142 -0.14032707 -0.507026 
-0.0061194086 0.0752948 0.22763908 
-0.0627278 -0.118613474 -0.017159125 
0.10238711 -0.10761726 -0.5007073 
0.12795971 0.059073158 -0.36036685 
-0.16194738 0.059404455 -0.0558065 
-0.15943272 0.023025 -0.25760823 
-0.062587894 -0.1368375 -0.24436 
-0.04145012 -0.101606585 0.013235392 
-0.14994791 0.048589505 0.3080121 
-0.035167344 0.022852782 0.22145183 
-0.0020731306 0.1266138 -0.3026296 
-0.13159855 0.058299504 0.30398446 
0.027038265 -0.122067474 -0.09372946 
-0.05425459 -0.13467862 -0.2898898 
-0.20493373 -0.027410822 -0.5004838 
0.14795601 -0.051672075 0.19932885 
-0.16681539 -0.034212917 -0.14411223 
-0.05310731 0.079497516 0.30801174 
-0.12769346 -0.020115867 0.41454867 
0.023273433 -0.112690344 0.14824325 
-0.14769651 -0.12251797 -0.117323644 
-0.12724233 0.05868796 -0.3696812 
-0.017571036 -0.1304704 -0.10898762 
-0.14910501 -0.0033221678 0.37891188 
-0.008857357 -0.082621 0.21737385 
0.14241439 -0.066408366 -0.32851255 
0.14582747 0.047200926 0.2595252 
0.012847442 0.13243183 -0.5018542 
0.0010425554 0.20993327 -0.4807847 
-0.14772841 -0.04571744 0.3722694 
0.16517843 -0.040303186 0.29032558 
-0.07807246 0.06562444 0.20803885 
-0.06768721 0.1456929 -0.38305613 
-0.11748927 -0.04525664 -0.15510377 
-0.043389812 -0.04814207 0.22301479 
-0.14281483 0.0025911517 -0.4994446 
-0.06559111 0.14130417 -0.2933382 
-0.030658683 -0.1799659 -0.28171897 
-0.14547746 -0.120513685 -0.42372036 
0.13432403 0.044105865 0.099228 
0.15215415 -0.030897565 -0.35641307 
0.08752246 -0.09066541 -0.004864868 
0.008428615 -0.1201882 -0.18558079 
-0.06880691 -0.1415336 -0.28407648 
-0.11171377 0.02607796 -0.30594555 
-0.05802041 0.20226823 -0.4551193 
0.112466834 0.0012416883 -0.49476716 
0.019258179 -0.05039926 0.40229794 
-0.15301372 -0.12984279 -0.3869545 
0.09632925 -0.08857283 -0.095775634 
-0.13383776 0.021354377 -0.3040137 
-0.13577643 -0.11017117 -0.48077637 
0.004478409 0.22732309 -0.47135282 
0.07809466 -0.045472734 0.40641207 
0.17711005 0.024598977 0.22544219 
-0.12512921 -0.14066884 -0.43196613 
0.14560053 0.017097395 -0.4970024 
0.10665252 0.0942005 -0.3578221 
0.06202391 -0.11610888 0.009267212 
-0.008036436 0.21055867 -0.45751682 
-0.10897439 0.041709524 0.4026784 
0.13264173 -0.15269706 -0.44003245 
0.12421166 -0.1042068 -0.5152801 
-0.07728954 0.14912805 -0.27199674 
0.057355404 -0.15981929 -0.25111532 
0.03335045 -0.16825674 -0.38121405 
-0.021322578 -0.08468838 -0.50078905 
0.009527278 0.13946743 -0.3538918 
-0.082204 -0.121080436 -0.3371173 
-0.19942918 0.02606077 0.10765644 
0.017047988 0.1176689 0.00553506 
-0.17665093 0.057227623 -0.5094176 
-0.04772899 -0.12628575 -0.2468155 
0.103917144 0.15141355 -0.42152178 
0.12516269 0.060120374 0.16239466 
-0.026660437 0.03512172 0.22328942 
-0.071891524 0.00021183671 -0.49896237 
-0.08335319 -0.1303225 -0.09442534 
0.06396439 0.09464493 0.30499518 
-0.0036848995 -0.1347145 -0.3537677 
0.086082615 0.13165551 -0.28780776 
0.12662262 0.05219085 0.103319205 
0.18760206 -0.06850741 -0.41598025 
-0.0065657017 0.13719907 -0.3074472 
-0.07860563 0.0071830964 0.09897177 
0.1156072 -0.07511264 0.14045538 
-0.11764282 -0.06129921 -0.24910378 
-0.14751273 -0.0034047733 0.33095363 
-0.13104168 -0.019698802 -0.32498264 
0.117792666 0.071601115 -0.22517928 
-0.029782552 0.09949591 0.1487208 
-0.016671222 0.09307052 0.17623019 
-0.15009202 -0.10991582 -0.4138681 
-0.07197484 0.07635811 0.20185298 
-0.08201844 0.13477458 -0.2502191 
-0.22852531 0.019657329 -0.472157 
0.056376964 0.20475702 -0.46137667 
-0.16332991 -0.08463878 -0.037202366 
-0.07372768 -0.1654283 -0.5143289 
-0.18260823 -0.06589313 -0.38963887 
0.13401437 -0.057725035 0.0046346914 
0.080169566 -0.12254739 0.08447038 
0.15345089 0.121828005 -0.48743904 
0.13893403 -0.09321203 -0.27466658 
0.121918224 0.028541146 -0.20037879 
-0.11170626 0.03588425 0.17995764 
-0.15198398 -0.12958801 -0.1427918 
0.15038694 -0.043835282 0.1723636 
0.06406706 -0.10021394 0.22063716 
0.12085014 0.062151276 0.07168832 
0.17625159 0.10673554 -0.43900836 
0.049874857 -0.1385657 -0.12636125 
-0.05217278 0.140336 -0.3916285 
-0.09083161 0.08085131 0.31270292 
-0.023633959 0.048955183 0.18323168 
0.15473433 0.027234249 -0.23675822 
-0.12481274 0.058744155 0.028199945 
0.07290955 -0.1041377 0.22267431 
0.16204563 -0.019812908 0.13570255 
0.11390324 0.016790709 0.40099615 
-0.14995244 -0.00506363 -0.2850538 
-0.13226128 0.07841245 0.029028315 
-0.00035497558 0.13646378 -0.49998108 
0.037428167 0.09505271 0.34907097 
0.09053621 -0.18285032 -0.43363297 
0.06725266 0.012206112 0.47039112 
-0.0439584 -0.12336567 -0.33366543 
0.029570935 -0.14455982 -0.36234292 
-0.07295591 -0.08355934 -0.49861452 
0.016113233 -0.028038861 0.43044472 
-0.00882581 -0.030536722 0.19501029 
-0.07515127 0.111088194 0.09475739 
-0.21630585 0.018710246 0.17891352 
-0.015409624 -0.09567692 0.17409976 
-0.142472 0.13288347 -0.5005367 
0.15683 -0.11623133 -0.43593845 
-0.19837308 0.033645656 0.20758682 
-0.2066226 -0.0051463204 -0.49987713 
-0.038784754 -0.18516539 -0.44687998 
0.16119118 -0.06440971 0.21016593 
0.15581003 -0.023947824 0.09581152 
0.085973464 -0.10510842 -0.1842256 
0.048591305 0.044960875 0.43465522 
0.109570585 0.074884474 -0.19156946 
0.018634569 0.077830225 0.31734988 
0.0042665433 0.074182965 -0.49748114 
0.16471057 -0.0670439 -0.2611851 
-0.027417867 -0.110261895 0.120466284 
0.11071805 0.17439479 -0.45809615 
0.074008 -0.11560739 -0.019618439 
0.005816288 0.0017187577 -0.47788638 
-0.087333314 -0.12587863 -0.12296989 
0.1601968 0.04613963 -0.5015175 
0.133858 0.14024079 -0.40637988 
-0.065384656 -0.12437246 -0.1547513 
-0.07133479 0.11383754 -0.16989945 
-0.057290036 0.015785221 0.4403835 
0.09145674 0.094833314 0.30553868 
0.0074902847 0.08116671 0.32767862 
-0.1388829 0.0062753954 -0.27735496 
0.06694407 0.03330496 0.41512284 
0.18329145 0.11418889 -0.47467384 
0.10819161 -0.08862796 0.3344122 
0.027159771 0.009079737 0.46936882 
-0.13165319 0.126109 -0.14148538 
-0.10824496 -0.066147335 -0.31492868 
-0.005038562 0.21675465 -0.45866573 
-0.111311406 -0.040278483 0.38578907 
0.12592132 -0.037985247 -0.0045110974 
-0.13751367 -0.15694046 -0.4784044 
-0.1224839 0.055471886 0.029488785 
-0.12239059 -0.09776803 0.032180145 
0.12693141 -0.11806215 -0.49788168 
0.019297179 -0.08553801 0.3723925 
0.10865004 0.15180638 -0.40324792 
-0.08949685 -0.11902652 -0.012842493 
-0.16920814 -0.003585774 -0.13641232 
-0.15121157 -0.1069596 -0.02619281 
-0.0066625834 0.1549633 -0.5078473 
0.12534334 0.024286665 -0.17255908 
-0.09052126 -0.116304226 -0.5041174 
0.14312117 0.109014265 -0.39286646 
-0.21619545 0.032218587 0.12273543 
-0.1589218 0.12606105 -0.08407689 
-0.08660896 0.088056244 0.31048378 
0.05146921 0.16869426 -0.36518872 
-0.056567322 -0.123752184 -0.07086108 
-0.002942202 0.049295202 -0.5051756 
0.120158926 -0.16462968 -0.47788253 
-0.14858754 0.0027886187 0.28388047 
-0.009769406 -0.072921224 0.20683388 
0.03279485 -0.10483123 0.1996277 
0.028502762 0.070041336 0.3910161 
-0.07520135 0.08147657 0.28151923 
0.16941792 -0.024877802 0.25705922 
0.062735334 0.118470326 -0.0009457442 
0.014816485 -0.046924632 0.40866938 
-0.06919648 0.10654517 -0.223455 
-0.17000696 0.028919226 -0.041145075 
0.12289028 0.06911198 0.36150047 
-0.010176299 0.05110265 0.20323434 
0.045542225 0.12472862 -0.19658265 
0.01322069 0.111188106 0.06125308 
0.019171642 0.066922784 0.41158676 
-0.113776416 -0.12421394 -0.10737294 
-0.032673467 -0.082846634 0.14565125 
-0.16918078 -0.08821384 -0.10717146 
0.17251453 -0.06433313 -0.41966233 
0.04146516 0.14659587 -0.22816545 
-0.03813759 -0.08669926 0.24091618 
-0.1249599 -0.1693237 -0.4673604 
0.045610756 -0.096798554 0.27860713 
0.039450012 0.14693536 -0.51351565 
0.20593475 0.065800644 -0.48349994 
0.15685737 0.04028408 0.36660847 
-0.15266909 0.048226766 -0.5240286 
-0.0040826183 -0.07376514 0.3970408 
0.15253149 -0.07291524 0.2743093 
0.06637879 0.12573788 0.06267243 
0.19530879 -0.046358753 -0.42770177 
-0.0043744743 -0.028224649 0.22524266 
-0.044167712 -0.19785182 -0.4500169 
-0.16086106 0.062985815 -0.023628924 
-0.14107119 0.091390796 0.035934277 
0.10273189 -0.00088573823 0.4352121 
0.010236946 0.091736406 0.28876466 
0.14411512 -0.026234062 -0.360118 
-0.1395342 -0.06069042 0.37021706 
0.04733641 -0.13319126 -0.48191544 
-0.16005248 -0.058385585 -0.028443396 
0.041029964 0.1616753 -0.38529253 
-0.20465943 0.01580925 -0.491903 
0.10430838 -0.09859061 0.059991702 
0.12736629 0.08812954 0.31509537 
0.20898528 0.037866797 -0.47586048 
0.044239543 0.122648165 -0.066082105 
-0.007065058 -0.16448683 -0.29860425 
-0.06487718 0.12842253 -0.15755154 
-0.031926867 0.18812217 -0.3927101 
-0.18993235 -0.02035399 -0.4224033 
-0.018132778 0.19965605 -0.44159365 
0.060188964 0.11176028 -0.010284927 
0.12270296 0.038420495 0.40322152 
0.012374474 0.05643696 0.39884144 
-0.19785507 0.062000964 -0.4802053 
0.12657715 -0.07513579 0.28855917 
0.11131651 -0.0030842337 -0.1965228 
0.10285858 0.014956327 0.41173717 
-0.16397034 0.0144725265 -0.39882502 
-0.044813473 0.033245105 0.1537453 
0.1994765 0.08088521 -0.41674957 
-0.16848195 -0.08302735 -0.03055282 
0.08767092 0.19542405 -0.4886445 
-0.13189556 -0.10320836 -0.40562034 
-0.043942023 0.11830823 -0.0045573525 
-0.15158027 -0.05764755 -0.2855994 
-0.17538829 -0.022972625 -0.12897542 
0.18488392 -0.10827092 -0.4470643 
-0.07683303 0.09462756 -0.34555975 
-0.087286085 0.17506354 -0.5019922 
0.16063727 -0.082928285 -0.4303267 
-0.1361753 0.052550226 -0.3752054 
0.1590569 0.036489364 0.119216986 
0.16772296 0.13109037 -0.48287067 
0.10552007 -0.085980825 -0.1723268 
0.018131815 -0.20938762 -0.4610942 
0.007688607 0.13972728 -0.35349542 
0.14237675 0.16003321 -0.49268433 
-0.19122827 -0.052350957 0.14812602 
0.12462422 0.15801443 -0.4042377 
-0.11009417 0.03905693 0.16418667 
0.0710261 0.0030977433 0.4668913 
0.18002681 -0.0013515933 -0.382773 
0.0885027 0.0899571 0.38143086 
-0.034596782 0.095912844 0.30062696 
0.06040492 0.10338497 0.22982371 
0.017384613 -0.0064943437 0.45938176 
-0.14715452 -0.12522125 -0.14576136 
0.12799484 -0.069011904 0.21471098 
-0.06558185 0.120103136 0.039047334 
-0.15790106 -0.03192451 0.12845027 
0.027671622 0.148091 -0.17276005 
0.12211314 -0.06842332 0.3667543 
-0.13073143 -0.0902516 -0.49822766 
0.20301625 -0.019039808 -0.398715 
0.10194504 0.08865609 0.14483052 
-0.13816668 0.06613252 -0.17798537 
0.03984787 0.079495065 0.3858134 
0.15174296 -0.14893757 -0.4524437 
-0.036965553 -0.15460643 -0.25818613 
0.15544587 0.03688848 -0.35440433 
0.007510664 0.11654263 -0.011578193 
0.09411552 0.092750385 0.21566373 
-0.15396959 -0.043971647 -0.4150252 
-0.11189889 0.050255805 0.049549624 
-0.022485076 0.16113193 -0.3832467 
-0.1130541 0.06428968 -0.35744765 
-0.10523677 0.06706698 0.38579848 
-0.051105227 -0.1267478 -0.48905337 
0.06551544 -0.11419035 0.06352108 
0.08418305 -0.09763284 0.015376949 
-0.20459548 -0.027084382 -0.46278006 
-0.024056993 -0.01655321 0.16227023 
0.014471369 0.19525339 -0.4064065 
-0.03782737 0.05389328 0.15344399 
-0.13345972 0.038829926 0.14866802 
0.07964219 -0.12321508 -0.07164507 
-0.057613555 -0.09147942 0.21725005 
-0.07240128 0.06388793 0.20117813 
-0.11199164 0.06354357 -0.16358681 
0.18191965 -0.11020001 -0.49985284 
0.17844136 0.08608749 -0.47674906 
0.14783551 -0.057533603 0.25318694 
0.11158251 -0.18280777 -0.50117534 
0.060089998 -0.030564481 0.40532273 
0.0074228887 -0.15947686 -0.2939044 
0.16308518 -0.047733206 -0.37964126 
-0.05067535 -0.06683603 0.20719059 
0.08402805 -0.09349524 -0.0048042457 
-0.027780717 0.139257 -0.23881947 
-0.15397327 0.09615203 -0.4996163 
-0.08246207 -0.06604488 -0.49903765 
-0.17388844 0.022007555 -0.13401806 
-0.13154496 -0.013228807 0.14845128 
0.12674476 0.06301492 -0.33839214 
-0.1774561 0.03634596 0.18996239 
0.013061585 -0.1769816 -0.49996004 
-0.10082541 -0.0017824807 0.066125184 
-0.033422437 0.118094705 -0.48048767 
-0.06943835 0.14234796 -0.49617216 
0.14644067 0.12618391 -0.4237423 
0.11675011 -0.079085656 -0.013936223 
0.007739721 0.117717594 0.012782523 
-0.1415331 0.021452297 0.38432124 
-0.12448861 -0.0072260853 0.15691449 
0.14520581 0.049749114 0.068748645 
-0.20651442 -0.049102247 -0.4767589 
0.038278874 0.14016825 -0.35080993 
-0.07194283 -0.17264101 -0.42978638 
0.08816337 0.11533981 -0.010152307 
0.15973184 0.059960373 -0.24953638 
-0.058670677 -0.15724726 -0.37773788 
0.13483886 0.12006584 -0.4936487 
0.12583807 0.07309896 -0.003331733 
-0.1173211 0.1033559 -0.37148347 
-0.07036369 -0.021569794 0.20472664 
-0.09695064 -0.103400886 0.06722521 
0.11424306 0.12697423 -0.28047106 
0.14720008 0.06400163 0.13656805 
0.11868952 -0.07192055 0.17560501 
0.17524073 0.12923545 -0.49697328 
0.12156028 0.019183476 -0.20664619 
-0.023217872 -0.12259969 -0.07347528 
-0.11019229 0.068046816 -0.34062377 
0.004936083 0.0831429 0.36912325 
0.09601467 0.09405673 -0.08747684 
-0.07455732 -0.11856 -0.00011711525 
0.15832314 0.06385733 0.35518333 
-0.01642351 0.10873085 0.16456686 
0.13277525 0.15021978 -0.3967464 
0.13865088 0.025605006 0.34873572 
-0.14079933 -0.10066394 -0.39153045 
0.15270098 -0.1273844 -0.49850532 
0.018647058 0.13087298 -0.33686376 
-0.016596537 -0.04289055 0.1798708 
0.06847863 0.11384413 -0.07258576 
-0.07306978 -0.15763347 -0.28071818 
-0.13085295 -0.11046747 -0.4248124 
0.1325159 0.08835407 -0.49871606 
0.07387533 0.15114805 -0.39152837 
-0.07650245 -0.19796933 -0.46368363 
0.025001457 -0.17985214 -0.39646533 
0.17069516 0.05750452 0.068370335 
0.21293624 0.00017686866 -0.38978016 
-0.153044 0.13921176 -0.53703886 
-0.005104662 -0.1691233 -0.24041057 
-0.09025717 0.060057722 0.42469656 
-0.030656679 -0.109900154 0.10431609 
0.12744047 0.05142185 -0.32834205 
-0.17186747 -0.014314599 -0.11726758 
0.15001383 0.04308395 0.07518081 
0.15487824 -0.03378988 -0.24286348 
0.07218793 -0.110272445 0.10967693 
0.19781373 0.08373297 -0.495426 
0.120760344 0.083791524 -0.3712154 
0.06108616 0.11735191 -0.0047459705 
0.14662361 0.1404376 -0.49833298 
0.105734944 0.10162101 -0.35640147 
-0.053199936 -0.003834572 0.4475079 
-0.17287384 -0.009835959 -0.06574166 
0.1337733 0.092778996 -0.24301505 
0.16752554 0.07666442 -0.4990643 
-0.15444033 0.03762 -0.36979616 
0.1243377 -0.025560297 -0.3389638 
0.18149023 0.0655788 -0.44134566 
-0.11283458 0.058902003 0.39519867 
0.11064867 0.08205146 0.35930154 
0.10297442 -0.07149801 0.26502913 
0.102027036 -0.08476118 -0.12673338 
-0.14253001 0.11917319 -0.48255575 
0.08369239 -0.10024919 0.2607734 
0.09635791 0.039087947 0.3982182 
-0.15993592 -0.046083253 0.12974529 
0.023329431 -0.05660437 0.41430992 
-0.10280981 0.058034945 -0.50000846 
-0.14968199 0.012265874 0.37989506 
-0.12755632 0.00842607 0.15959172 
-0.16712297 -0.084598914 -0.11836621 
-0.12978356 -0.06542311 0.020099645 
-0.11054186 0.051588546 -0.3187093 
-0.0237426 -0.05895625 0.1521801 
0.111321725 -0.102962136 -0.48512 
-0.21490996 -0.029081425 0.1113468 
0.11046902 0.03124301 0.42713118 
0.08655393 0.1040171 -0.10123166 
0.116003804 -0.12749384 -0.27639905 
-0.10470935 0.1301671 -0.39206022 
-0.0062257745 -0.16195019 -0.37533715 
-0.057664756 -0.05980305 -0.49387664 
-0.11182833 -0.076177634 -0.30104458 
-0.08888509 0.109382585 -0.29560483 
-0.09581658 0.063476905 0.1973025 
-0.027750924 -0.16262908 -0.27794588 
-0.094296664 -0.14460304 -0.26619184 
0.088062815 -0.09600674 -0.14699927 
0.09826697 -0.089077875 0.15487269 
-0.09261857 0.11858216 0.081109524 
0.03417939 -0.1344861 -0.23111197 
0.18883902 -0.07833578 -0.43389627 
0.12192262 0.024462022 -0.104370356 
-0.19031785 0.024458038 0.10206361 
-0.15030573 -0.032315228 0.3001962 
-0.17196509 -0.012257212 -0.0411823 
-0.17891176 0.0062744734 -0.085661925 
-0.096904725 0.11092622 0.06220714 
-0.10814082 0.15614355 -0.41756785 
-0.21618277 -0.0038505418 0.15546021 
-0.06400759 0.11768231 -0.024108296 
0.14278288 -0.061268363 -0.23966266 
0.07110314 -0.007355999 0.42010596 
0.16961397 0.031102981 -0.38904986 
-0.071010776 0.086892396 0.35759354 
-0.13598166 -0.060393926 0.27283004 
-0.20700908 -0.02859618 0.1767491 
0.05547502 -0.18522201 -0.5043299 
0.11149235 0.070571184 0.010778027 
-0.114482254 -0.052926853 -0.32349104 
-0.10650627 -0.13778333 -0.12465246 
0.061453864 0.09711769 0.3212083 
0.10869277 0.075455755 -0.005872131 
0.15128948 0.041335832 -0.29305252 
-0.008298749 0.032749645 -0.49453342 
0.010580585 -0.027388271 0.4299163 
0.02252532 0.11150877 0.1189962 
0.093112476 -0.09853117 -0.30168417 
0.16804025 -0.031202255 -0.2530991 
-0.17669618 -0.087861 -0.49348378 
0.1261783 -0.06661619 0.16348991 
0.0724349 -0.13874634 -0.2539631 
-0.1639599 -0.0028680773 0.26673698 
0.1284858 -0.09497543 -0.3857565 
-0.21257177 0.026045922 -0.4938297 
-0.13426208 0.02841251 -0.38367656 
0.00037837448 -0.123227514 0.010512027 
-0.17140944 0.1068754 -0.05153731 
-0.108336836 -0.011680424 0.05182313 
-0.022124927 0.023367938 -0.5090118 
0.1063339 0.081309 0.007100038 
0.20011503 -0.064550355 -0.49255487 
0.010655931 -0.1585757 -0.37814897 
-0.111015625 -0.15317877 -0.49943352 
-0.1806983 -0.100129254 -0.47808906 
0.08947556 -0.095552176 -0.06482282 
0.04387169 0.07756035 0.38377976 
-0.15761943 0.10213292 -0.0151299825 
-0.04027142 -0.11213491 0.09361873 
-0.06285903 0.09556308 0.2944027 
0.109794065 -0.08263117 -0.21747865 
-0.07027681 -0.09003776 0.052796736 
0.13026653 -0.05581222 -0.35327205 
-0.03711161 0.11331001 -0.10215476 
0.15758865 -0.019237915 0.2951148 
-0.049781702 0.08661616 -0.51019955 
0.14143963 0.052993484 -0.28830606 
-0.09452221 -0.17892729 -0.49611402 
-0.121997036 0.06784849 -0.16238642 
0.027399408 0.09755892 0.2011649 
0.14469495 -0.036745355 0.11789055 
-0.0402575 0.12467734 -0.20715241 
0.12035391 -0.15216254 -0.38011894 
0.0141584035 -0.13104224 -0.31841725 
0.10131869 0.08574415 -0.13663694 
-0.0896804 -0.079729244 0.40333378 
-0.16616201 -0.00567758 -0.38921678 
-0.15228567 -0.0064946297 -0.24373838 
0.12702858 -0.0326871 -0.20458625 
0.15870622 -0.15739031 -0.43684858 
-0.07950156 0.085445724 -0.30067322 
0.16922043 0.09953654 -0.4087239 
0.06973025 -0.120131366 -0.03610591 
0.05861864 0.12319229 -0.31427735 
-0.019426271 0.107507974 -0.0005088005 
-0.08195261 0.07817717 0.32439283 
-0.11988355 -0.120298356 -0.2660339 
0.088963345 -0.10404164 0.05619406 
0.12894607 0.06369849 -0.1551786 
0.03477066 -0.053952347 -0.4962611 
0.038120985 -0.14443499 -0.3568942 
0.15058899 -0.012291378 -0.3559617 
0.12095325 0.059948858 0.10486496 
0.16056694 0.14354008 -0.45512742 
-0.14641067 -0.021925023 0.33873484 
0.007365114 0.13134362 -0.32218042 
0.16276576 -0.084439114 -0.4305376 
0.12880795 -0.14123157 -0.5043466 
-0.06817179 0.10947663 -0.28774336 
0.0839537 0.11604057 -0.022086494 
0.0039117974 0.09842609 0.27509993 
-0.13265331 0.011357531 0.41714773 
0.14618953 0.010328885 -0.22541034 
-0.02714717 -0.19073805 -0.40839562 
0.07646646 0.020266915 -0.4966631 
-0.020313164 0.07158739 0.21870798 
0.055455454 -0.10504899 0.20371681 
-0.04570771 -0.08915544 0.033819716 
-0.1517323 -0.14834121 -0.46872115 
-0.16381021 -0.02597528 -0.07285974 
-0.2060951 -0.00798095 -0.49407595 
0.113729425 -0.049605638 -0.5021338 
-0.010325072 0.11788722 -0.5162223 
-0.19902849 0.032735266 0.16162218 
0.11887523 0.031566836 -0.12990502 
0.13038196 0.054004032 0.20998736 
0.04585141 0.10862169 0.14496942 
0.16255423 -0.14218897 -0.44115454 
-0.1457851 0.11328423 -0.0009824726 
0.091381386 0.09182136 -0.008781025 
-0.15133195 0.055394255 -0.16847527 
-0.14769629 -0.028823096 -0.49243608 
0.13128094 -0.06401765 0.0117643755 
0.0017461297 0.023413694 0.20517841 
0.029312946 -0.16628605 -0.4304883 
-0.018895894 0.19395289 -0.45457196 
-0.022715896 -0.18521747 -0.4351654 
-0.18003985 0.013929962 0.102491856 
-0.008875538 0.01263274 0.17733802 
0.14306088 -0.04192208 -0.30653968 
0.030847616 0.12009442 0.1359393 
0.14190662 0.06162811 0.193347 
-0.033150617 0.20526624 -0.5052154 
-0.040182248 0.12402478 -0.50037456 
-0.1418319 -0.052084763 0.24826549 
-0.15303524 -0.045520443 0.20204233 
-0.20515642 -0.0054024686 -0.49697858 
-0.12517206 -0.117477015 0.026762981 
-0.001981793 0.021100359 0.4438152 
0.09742625 -0.17998861 -0.51053995 
-0.088120624 -0.12482084 -0.06043221 
0.12414122 0.0500708 -0.08805934 
-0.027573746 0.05173692 0.16286819 
-0.071280725 -0.17821532 -0.4582385 
-0.010468213 0.07310134 0.21090649 
0.14609264 0.04681766 0.25933185 
-0.1726058 -0.07411064 -0.4390445 
0.03700501 -0.11614573 0.037984673 
-0.025971882 -0.12104854 -0.07527666 
0.05909369 -0.21037194 -0.44802022 
0.06667227 0.17983305 -0.43140283 
0.14274643 0.043917336 -0.3787661 
-0.15963334 -0.051364753 -0.3911234 
0.11766839 0.054117706 -0.06642258 
0.06296183 -0.113100804 0.22418869 
-0.13826506 0.08108324 -0.16863285 
0.068439394 -0.13523366 -0.37846664 
0.11127574 0.18504013 -0.44377252 
-0.033720385 0.064941354 0.22180226 
-0.15670836 0.03779135 0.124861814 
-0.008193972 -0.12753165 -0.15028277 
0.16941488 0.10511526 -0.4993563 
0.14123239 0.1085481 -0.38921717 
0.037996456 0.02439452 0.43195403 
0.0010469799 -0.0003702551 0.48971015 
-0.13516937 -0.14764465 -0.48356137 
0.17279683 -0.004900147 -0.49427527 
0.17448784 -0.012794195 0.20616701 
0.13825397 -0.026682187 -0.33276972 
-0.16419609 -0.050083864 0.13543208 
0.117027305 -0.053709835 -0.14567082 
0.10359825 0.15912645 -0.50631356 
0.08615608 -0.013156688 0.42701498 
-0.008621731 0.13122782 -0.23777764 
-0.016113516 -0.09064509 0.10074078 
0.15727898 -0.029793812 0.27068594 
-0.048111793 0.11704057 -0.0037463072 
0.037522964 0.0962755 0.27165103 
-0.0073377136 -0.1408451 -0.16760647 
0.11051981 0.07837668 -0.043753948 
-0.14057586 -0.05654466 0.16112608 
0.09931042 0.17570408 -0.41735741 
0.13172776 0.17193703 -0.48389804 
0.0070580537 0.11000796 0.104385 
-0.08827714 -0.0015789801 0.4569904 
-0.052667588 0.09783022 0.29852805 
-0.13667321 0.053546153 0.15398529 
0.11136794 0.08929882 -0.079364054 
0.12653838 -0.0159371 0.390687 
0.0236658 -0.13646455 -0.063739784 
0.10943471 -0.00089862355 0.44385317 
-0.18018293 -0.05408514 0.19789925 
-0.09334461 0.087434106 -0.17830679 
-0.13441806 -0.026316408 0.40602583 
-0.09284504 0.00942212 0.44246852 
-0.0065315207 -0.112271026 0.105845444 
0.11356731 0.07720674 -0.031890463 
-0.17251654 0.083554275 -0.042900227 
-0.007689165 -0.13343719 -0.22581606 
-0.027690493 0.17181924 -0.41477382 
0.1493542 -0.054919034 -0.51091945 
0.08476977 -0.17760237 -0.40940315 
0.16255629 -0.1189368 -0.4010891 
-0.0579037 -0.13009727 -0.16148992 
-0.05583807 0.058579285 0.11578374 
-0.01539139 -0.098030485 0.21377988 
-0.059699647 -0.20751153 -0.45900527 
0.017185086 0.17911658 -0.4338496 
0.07942251 0.021344094 0.4086039 
0.0346222 -0.11628948 0.027889995 
0.0056322236 -0.09842374 0.281101 
-0.12955298 -0.050816573 -0.3039086 
0.12735562 -0.0590487 -0.086274706 
0.1461105 0.05025331 0.3117236 
0.00045696602 -0.024065495 0.43702137 
0.14163986 -0.014218744 -0.34397793 
0.024617486 0.16815734 -0.391258 
-0.18687718 0.059290383 0.13768648 
-0.0023795331 -0.10644913 -0.069253735 
0.12770624 0.042697158 -0.22334392 
-0.07180812 0.049468607 0.19778317 
0.06635311 -0.102729455 0.20581521 
0.03467078 -0.09809851 0.29161307 
-0.16302828 -0.038540453 0.20179832 
-0.07631739 0.024332874 0.08348413 
-0.060487438 -0.108389005 0.10570636 
-0.10695208 -0.01611621 0.43221968 
-0.1779861 -0.014788247 -0.06297538 
-0.08917611 -0.09985766 -0.18224815 
-0.1337166 -0.08423533 0.03937271 
-0.12817879 0.024655657 0.39620802 
-0.060931247 0.025308134 -0.4951361 
-0.094537705 0.09829446 -0.22641116 
-0.11057436 0.064974904 -0.21337982 
0.17510754 -0.037931994 0.23573773 
0.0012278106 -0.16430707 -0.27741566 
0.00061866024 -0.10449593 0.17246662 
0.025731372 -0.03292617 -0.49159065 
0.100976035 -0.08224307 -0.0020166223 
0.016083697 -0.13030808 -0.1494448 
-0.02984036 0.16588663 -0.37546927 
0.114025906 -0.12582837 -0.37891957 
0.0951179 -0.15911247 -0.27555138 
0.07823904 -0.15359265 -0.5021656 
0.013368612 -0.083578825 0.3408044 
-0.026341537 -0.08588308 0.30543205 
-0.038602244 0.129658 -0.3524602 
0.054842945 0.111314945 0.11513369 
-0.11002646 -0.06412798 0.20777053 
-0.080057055 -0.118547186 -0.015340869 
-0.10420274 0.07579726 -0.21039852 
0.045580395 -0.119164705 -0.12474087 
0.11327921 -0.07790307 -0.518879 
-0.12552342 -0.16281538 -0.48404545 
0.07487161 0.12726106 -0.25111008 
-0.21917085 -0.0017610946 0.109550044 
-0.17525479 0.022930473 -0.101931766 
-0.06599159 -0.016545048 0.44650528 
0.046096496 -0.11635235 0.06590393 
0.018421292 0.10265013 0.21759628 
0.052530717 0.0780919 0.39241764 
-0.17951381 0.09713503 -0.4920048 
-0.010858384 0.14198148 -0.2968489 
-0.045967203 0.20339802 -0.48740003 
-0.06020766 -0.16984622 -0.494142 
-0.17615815 0.040085465 -0.43401036 
0.112905554 0.074215025 -0.05759329 
0.06418149 0.10712954 0.1706394 
0.06348307 0.12866665 -0.30039543 
-0.10180529 -0.07854768 0.30475754 
0.12084694 0.030144239 -0.14965709 
0.009933957 -0.20054162 -0.4168916 
0.122694485 -0.05243685 -0.1754744 
0.12327335 0.065379985 -0.05985489 
0.07475125 -0.08314686 0.40488857 
-0.20570928 -0.011657152 0.0671386 
-0.13491064 0.07324328 0.015531167 
-0.09402324 -0.10536799 0.07049409 
-0.112369075 0.13192885 -0.4091841 
0.14621174 -0.040293753 0.2816474 
-0.025535267 -0.08448134 0.23295194 
-0.016954271 -0.19465004 -0.3789329 
0.100751445 0.09095126 -0.30553392 
0.12521407 0.113425426 -0.27676302 
-0.12016848 -0.09972648 -0.48784453 
-0.15107559 -0.05358194 0.349033 
-0.031838987 -0.08449775 0.23562026 
-0.10278617 -0.07776396 -0.49676758 
0.019075442 -0.1098301 0.103358 
-0.060300536 -0.045813877 0.20639263 
-0.053398494 -0.08173585 0.13818622 
-0.12443206 -0.10048521 0.025937144 
-0.026454942 0.14812638 -0.24342136 
0.008895011 0.102869116 0.23867564 
0.11191848 -0.085230246 -0.21657826 
0.09132962 -0.13738836 -0.278322 
0.09118256 -0.08038623 0.37667355 
0.076841384 -0.18582174 -0.50570804 
-0.09077213 0.09691584 -0.17882812 
0.042130042 -0.16438062 -0.38518026 
-0.11061345 0.052165877 0.22247604 
-0.13386379 -0.15599552 -0.4451416 
0.12964825 -0.15080763 -0.49931923 
0.00013916216 -0.16744925 -0.23686078 
0.13067697 0.0732873 -0.2818495 
0.13034482 -0.008766701 -0.029380856 
0.078628235 -0.12180992 -0.05121347 
-0.058481894 -0.17257692 -0.42252442 
-0.11216858 -0.073214665 0.041011166 
0.052480243 -0.026481465 0.43022266 
-0.15306093 -0.047204275 0.13684802 
0.009399226 0.117085144 -0.021423077 
-0.02171975 0.21133511 -0.43880925 
-0.12829192 -0.02918577 0.41255447 
0.14272508 -0.056720205 -0.29571053 
-0.05262593 -0.11117933 -0.20694296 
-0.04352813 -0.13146919 -0.12609002 
-0.10679031 0.13601664 -0.3914192 
-0.1775902 0.04071004 0.20767017 
-0.18003641 0.015920078 -0.08602261 
0.21361452 0.023288967 -0.49997088 
-0.19073044 -0.079452306 -0.45843327 
0.071838014 0.121468276 -0.30199715 
-0.09161282 0.19042061 -0.4433355 
0.16054884 0.14137174 -0.44423917 
0.11311662 0.045404755 -0.49616408 
-0.122215874 -0.0074428422 0.4046566 
0.15630968 -0.028429992 -0.37618148 
-0.057163194 -0.12670349 -0.1495631 
0.07708355 -0.110345975 -0.210795 
-0.003124714 0.21578962 -0.43564555 
0.024070518 0.1509858 -0.21684913 
0.14180045 -0.053184055 0.28817496 
0.11628791 -0.07469586 -0.046155937 
-0.09823207 0.15899435 -0.41587678 
0.004978232 -0.14849776 -0.22155207 
0.040065374 0.20870498 -0.48364493 
0.12075786 -0.08226449 0.08219367 
0.055191975 0.21618168 -0.5001385 
0.10044729 0.084056385 -0.12095535 
0.15302539 -0.03957408 0.15599559 
-0.10092716 -0.07929331 -0.14454588 
-0.037644267 0.20604005 -0.4374513 
-0.20388617 0.03757733 -0.46963868 
0.01123688 0.21286847 -0.46303496 
0.017987866 -0.10610562 -0.50028306 
0.0038728458 -0.10932269 0.1242521 
0.20419429 0.0052906424 -0.43299752 
-0.14474311 -0.11521907 -0.014180708 
-0.011040099 -0.03228636 0.20414384 
0.15442714 -0.031246306 -0.25412694 
-0.116599634 -0.0656632 0.39146233 
0.11190077 -0.06887169 -0.34905052 
-0.18647826 -0.0632026 -0.4337532 
-0.031890634 -0.016174467 -0.501946 
-0.014446366 -0.066043794 0.23362438 
-0.15002729 -0.03334592 -0.018848049 
-0.15076345 -0.021371292 0.13022014 
-0.13568468 0.1008051 -0.4269665 
-0.20251377 0.024763621 -0.5128872 
0.18464582 0.0334073 -0.41369194 
0.12865499 -0.046598192 -0.22074623 
-0.14063698 0.12309134 -0.3987327 
-0.06338675 -0.113425404 -0.33095217 
0.035233017 -0.07335152 0.3765611 
0.18412192 -0.11415797 -0.46169403 
0.12412471 0.07168968 0.18660119 
0.08205045 0.07455908 -0.5044091 
0.15714851 0.056046963 0.26984167 
-0.1145477 0.09397521 -0.24232075 
-0.12575954 -0.084754355 -0.36342663 
-0.11531696 0.11891049 -0.15643835 
-0.049891528 -0.009842142 0.126902 
-0.010845636 -0.15082206 -0.2661243 
0.16487662 0.049000844 -0.25608543 
0.032633997 0.09726107 -0.49451903 
0.09268438 -0.091469936 0.35908994 
-0.11404795 0.07796735 -0.2370475 
-0.15280963 -0.1308959 -0.40078625 
-0.10637635 -0.11262544 0.013821842 
-0.050283086 0.11094993 -0.5029662 
-0.12619254 0.16616064 -0.45082018 
-0.010364868 0.0021448976 0.4892142 
0.1673569 0.020211492 0.19157489 
0.14159514 0.060460925 -0.28673348 
-0.058919616 0.052562855 0.12831613 
-0.07674569 -0.08958366 0.2766495 
0.007000799 0.1766477 -0.4265676 
0.07682099 -0.19851346 -0.44287643 
0.04372345 0.0064791692 -0.49993426 
-0.15430553 0.038945526 -0.073417775 
-0.16816758 0.024961459 0.23756112 
-0.031537436 0.05755292 0.39412895 
-0.0040869014 0.15126456 -0.26934674 
-0.0058172294 0.024925355 0.44534832 
-0.12435839 -0.026114607 -0.32094762 
-0.11235885 -0.11040133 -0.26397663 
0.118289046 0.094403245 -0.5037734 
-0.17345293 -0.03590533 -0.08802206 
0.21377067 0.0313613 -0.4851141 
0.20752539 -0.012888277 0.22302997 
-0.07426978 -0.025828375 0.088863 
-0.1757231 -0.03759227 -0.09388623 
-0.070670106 -0.03189324 0.42588165 
0.15777828 -0.008301769 0.36465394 
-0.107066154 -0.06823816 -0.3270165 
0.18591143 0.06043706 -0.5270367 
-0.046424698 -0.05956163 0.23479502 
-0.051591285 -0.17627977 -0.38226977 
0.06274513 -0.04336766 -0.50020397 
0.032623485 0.10919519 0.10671692 
0.119625315 -0.1836442 -0.48878294 
-0.17494874 0.10396546 -0.0907066 
0.10318851 -0.08858533 -0.30953625 
0.16972224 -0.030021647 0.2133414 
0.16350934 0.022283992 0.28161258 
0.037934642 -0.16333745 -0.509918 
-0.12225647 0.13621598 -0.2822143 
-0.14236224 -0.07534299 -0.17069452 
0.11796027 -0.069640085 0.16786855 
-0.029926512 -0.003985772 0.23490523 
0.08983713 -0.058726728 0.39327073 
-0.07909529 0.13745001 -0.37403283 
0.031166604 -0.061191037 0.41064847 
-0.15072943 -0.07794404 -0.17175704 
0.054671727 -0.017324103 0.42448103 
0.1379314 -0.101032265 -0.27660498 
-0.15762945 0.075704075 -0.44038877 
0.11027891 0.13801245 -0.42140278 
0.121351376 0.008861492 -0.16335149 
-0.11536063 0.063804254 0.31792605 
0.123497896 -0.04732735 -0.12957162 
0.029059602 -0.10872308 0.18358931 
-0.10774342 -0.049890585 0.1699311 
0.08127858 0.11128734 0.16364823 
-0.015669625 0.009636235 0.19383913 
0.055952355 -0.14423117 -0.3810323 
0.21186598 -0.08350872 -0.5013232 
0.06960247 0.03016351 0.41627097 
-0.13532862 -0.009347558 0.4387902 
0.019865306 -0.115043774 0.048911527 
0.13588428 0.004645798 0.024331596 
-0.0008441957 0.0778842 0.36842537 
-0.21655858 0.014707579 0.18101694 
-0.070498966 -0.047237556 0.10027609 
0.09535799 0.08645639 -0.20524001 
0.15178671 0.12960534 -0.41114554 
0.1676277 -0.031441398 -0.38872784 
-0.015223686 -0.09558732 0.17540778 
-0.18021801 -0.032221224 -0.43103093 
0.052482717 -0.115661904 0.041553378 
0.18242753 -0.011812175 0.244217 
0.17749123 -0.004011032 0.13023272 
-0.06778727 0.1586446 -0.42008865 
-0.028200636 0.19876839 -0.4256944 
-0.036316864 0.11138533 0.105717644 
-0.13914171 -0.020629251 0.39582658 
0.16514187 -0.033209436 0.3433565 
-0.09231596 0.120267786 0.0012407833 
0.06250044 0.1357193 -0.37033817 
-0.02828718 -0.15446585 -0.37265527 
0.04521586 -0.16378023 -0.38522732 
0.06502263 -0.18423052 -0.38960359 
-0.0011258967 0.04231972 0.2235322 
0.06730887 -0.12088629 -0.5153287 
0.045440964 -0.13578254 -0.4956221 
0.05973116 -0.1449064 -0.51547194 
0.057231203 0.13655831 -0.37777984 
0.039062716 -0.12787409 -0.18135038 
-0.119353324 0.06376139 0.36761662 
-0.19583228 -0.072604924 -0.48964834 
0.16245759 -0.018988084 0.14251648 
0.09706425 -0.08834588 -0.024222324 
0.1432721 0.03900556 0.0970529 
0.0961014 0.0638203 0.17684366 
-0.17974032 -0.014849874 0.2682757 
-0.11063877 -0.16844226 -0.45252314 
-0.17520714 0.041513227 0.12999107 
0.077180594 -0.10235407 0.26465192 
-0.11108531 0.052948505 0.054585874 
-0.15536614 0.053642914 -0.01866855 
0.15080974 -0.13373144 -0.40888187 
-0.19267114 0.03498797 0.11253862 
0.078545436 0.16383499 -0.43123692 
0.122530274 0.14620116 -0.455306 
-0.13524218 -0.058345977 0.35977077 
0.08206327 -0.10879361 -0.23284261 
0.13707754 0.09807376 -0.38264182 
-0.004186963 0.09023654 0.21944538 
-0.0069762575 -0.11873282 0.19691372 
0.19595008 -0.0670334 -0.485741 
0.043465566 -0.17631705 -0.4998333 
0.11110786 -0.18833329 -0.4510356 
0.048523717 0.14518966 -0.2916393 
0.17023236 -0.035928298 -0.2830843 
-0.18153763 -0.039983474 0.14271161 
0.14201206 -0.02871099 0.104607955 
-0.12500577 0.04454952 0.14701198 
-0.055804566 0.08051662 0.21495837 
-0.071304105 -0.16618334 -0.42575294 
0.0920721 0.12237826 0.14910193 
0.17394662 0.010155571 0.27415922 
0.17650987 -0.018749213 0.34566098 
0.096854895 0.09821057 0.21819495 
0.08597852 -0.0103905955 0.4375012 
-0.14291416 0.041397877 0.0043852166 
-0.032984488 0.060027227 0.19966291 
0.08413235 -0.10839542 -0.14367075 
-0.11554373 -0.16235423 -0.43597233 
0.039456397 -0.08080508 0.39921486 
-0.16685563 0.027843144 0.17923373 
0.016734645 -0.025864253 -0.5279468 
0.08665822 -0.095037535 0.26302007 
0.15384057 -0.037714917 0.36128718 
0.040392652 -0.14005761 -0.29365203 
-0.03226186 -0.09156194 0.25419158 
0.14114867 0.009559901 0.37696368 
0.02364268 -0.12480168 -0.19219387 
0.047564454 0.10365048 0.22159518 
-0.14011942 0.119565785 -0.11598398 
0.099961504 0.12430609 -0.28805733 
0.09439845 -0.16896035 -0.39761716 
-0.12012445 0.07494367 -0.34874174 
-0.07060852 -0.11452155 -0.4990752 
0.082779676 -0.09961133 -0.03051078 
-0.20408942 -0.0368739 -0.46051633 
0.09706105 -0.022947906 0.38723642 
-0.057033807 -0.115766995 -0.34492865 
-0.20622866 -0.014366773 -0.48942924 
0.041108094 0.12256184 -0.10289223 
-0.07358428 0.16666056 -0.445797 
-0.025847888 0.11053086 0.10870504 
-0.13960642 0.0058718743 0.36417598 
-0.13336095 -0.115625806 -0.0076889424 
-0.04665595 -0.105966784 -0.0023871954 
0.022937283 0.08824875 0.25734866 
-0.15144166 0.0506252 0.21782236 
-0.123365544 -0.03341489 0.026353069 
0.16437279 -0.016829286 -0.24629684 
0.16318949 0.030321317 0.142432 
-0.10321663 -0.064490475 0.17902875 
-0.00055581913 -0.08662505 0.18769816 
-0.18137732 0.037423585 0.11856454 
-0.1351691 -0.05523368 0.1902618 
-0.16137983 -0.11945038 -0.021335907 
0.081650786 0.10836824 -0.3360865 
0.15630917 0.14672466 -0.49014217 
0.0077128345 0.052482117 -0.5027052 
0.1399127 0.0047120955 0.05617063 
0.021723181 0.11437774 0.09720801 
-0.12405915 0.061474904 0.19355984 
0.008804305 -0.1264705 -0.33014417 
0.12085324 0.023182482 -0.0772548 
0.08203008 -0.116032034 -0.17710166 
-0.07454483 -0.080208704 0.29805464 
0.075653285 0.1511177 -0.25441545 
-0.12709819 -0.036975753 0.013013195 
-0.07722083 0.02250999 0.07746022 
-0.01577845 0.1421852 -0.31497934 
0.054858197 -0.13945591 -0.24664377 
0.1609435 0.018290136 -0.24473192 
-0.12597413 -0.0199341 -0.3046779 
0.10673494 -0.18460475 -0.49296665 
-0.12412774 0.06111404 0.35686764 
-0.025102459 -0.21521354 -0.5029387 
0.08358546 0.11100012 -0.008503913 
0.014052603 0.03187564 0.4382522 
-0.1565872 0.025918685 -0.49836403 
0.12440979 0.059926394 -0.047086924 
-0.11405377 0.07166948 0.31199083 
-0.16314283 -0.01943941 -0.14664543 
0.18076245 0.022621479 -0.42626315 
0.08158452 -0.11469778 -0.074342944 
-0.03839362 -0.17461303 -0.3991724 
0.13895161 0.1658399 -0.48163056 
-0.0176836 -0.044237405 0.41322246 
-0.00645033 -0.21092561 -0.46680194 
0.08955657 0.09729222 0.11925642 
0.120728336 -0.027280264 -0.15686268 
0.0025963297 -0.10753616 0.024065565 
-0.13735662 -0.13053168 -0.15081088 
0.119065955 0.025553621 -0.20505057 
-0.1905763 -0.069306865 -0.44693232 
0.14502174 -0.10273845 -0.417052 
-0.11429564 -0.18117206 -0.4724458 
0.13967137 0.06656979 -0.24207765 
0.15365297 -0.03831813 -0.4877244 
-0.06619212 0.034585632 0.10233259 
0.080096275 0.13277344 -0.2380183 
0.05097404 0.13841555 -0.3028228 
-0.03048607 0.12697579 -0.12907031 
-0.058631916 0.1156734 -0.21613874 
-0.17601667 -0.09025717 -0.4376587 
0.16170736 0.015214861 0.14712653 
0.14559597 0.13729699 -0.4367993 
0.034561567 -0.09039004 0.37398916 
0.22680984 -0.054280374 -0.49303997 
-0.08276683 -0.17474762 -0.48881727 
0.1129941 0.14176227 -0.39605543 
-0.08413803 0.07157673 0.2788531 
0.09930497 0.03915208 0.37262958 
0.18466096 -0.009771658 -0.41895387 
-0.024600232 0.00839436 -0.5216173 
-0.098755606 -0.06094654 0.33552468 
-0.026099656 -0.09768372 0.15325609 
-0.11819398 0.009879398 0.044218823 
-0.079080746 -0.1854126 -0.44316357 
0.15177448 -0.049105473 0.17799692 
0.10707343 0.09948588 -0.23096478 
0.12353502 0.096699215 -0.29058585 
0.030984309 0.10340846 0.22158374 
0.08035701 0.026316643 0.40314093 
-0.03650308 -0.12625767 -0.1961799 
-0.1306198 0.052090134 -0.23341905 
-0.08477213 -0.19100156 -0.5065796 
0.060733963 -0.009304983 -0.49924862 
-0.16530715 -0.09725089 -0.42336598 
-0.06082882 -0.17304274 -0.42206013 
-0.11919788 -0.13082302 -0.09820902 
-0.015539955 0.12994583 -0.524704 
-0.06625347 -0.098969065 -0.5187788 
-0.14995956 -0.04251669 0.30909637 
-0.081364624 -0.19272123 -0.47173595 
0.09755276 0.108413175 -0.19872425 
-0.042252 0.11701312 -0.1959103 
0.09268801 -0.09008594 -0.11967984 
-0.07517491 -0.011236117 0.20371139 
-0.16871504 -0.13010307 -0.12991741 
0.017105617 0.1276002 -0.22241978 
-0.060614344 0.01823905 0.43844894 
0.08906593 0.095674254 0.0703606 
0.13661818 0.057521295 0.037046794 
-0.08648688 -0.080902986 0.25879744 
0.027088674 -0.08751726 0.3538926 
-0.07725408 0.104229845 -0.20491426 
0.0026555187 0.030167604 -0.47407937 
-0.16707705 0.11821405 -0.09993168 
0.12131048 0.066669986 0.28234726 
0.12019334 0.079441324 0.3210881 
-0.106449775 -0.058530707 0.24293932 
-0.13231055 -0.03721765 -0.48797733 
0.11528565 0.07433081 0.07147388 
0.16809624 0.013519726 0.17603667 
0.11982739 0.038656943 -0.50389665 
0.048954967 -0.16829936 -0.4237488 
-0.17457765 -0.09652559 -0.072531894 
0.082974836 -0.10815973 -0.032349054 
0.111666955 0.072259836 0.2103294 
-0.14568107 0.07491164 -0.2743423 
-0.13347042 -0.058652177 0.25249776 
0.1177693 0.048529763 -0.114032865 
0.12022292 -0.016509945 -0.20808981 
-0.014783067 0.1137834 0.17171639 
0.08729965 -0.20335664 -0.43937424 
-0.10595048 0.08516895 -0.49750897 
-0.13097261 -0.04137986 -0.306143 
-0.07534996 -0.15486881 -0.2654205 
0.068836235 0.096708596 0.28925148 
-0.08486333 -0.09872014 -0.18848786 
-0.12757094 -0.11985419 -0.4464134 
-0.07859007 -0.11823895 0.034909938 
-0.09334839 -0.08333235 -0.33544356 
0.12552574 0.17430212 -0.4853841 
-0.055802617 0.1373926 -0.4946253 
-0.050434384 -0.08717464 0.34950736 
0.09267111 -0.09407093 -0.104757145 
-0.15453887 0.04686108 -0.04258364 
-0.0034888333 -0.019477246 0.4438454 
-0.028569803 -0.02702349 0.15072161 
0.12657338 -0.063583985 0.21287258 
-0.15859164 0.048542477 0.18499634 
-0.11964597 -0.09137072 -0.17599003 
0.13710588 0.027795691 0.016070139 
-0.15093291 -0.12916768 -0.12266508 
0.08799708 0.123473234 -0.06270696 
-0.11143402 -0.009027897 0.050090898 
0.00088782876 0.21240182 -0.5025117 
0.099363334 0.06276023 -0.50006026 
0.042394433 0.1348996 -0.19646852 
0.1790517 -0.019125015 0.28302005 
0.16945271 -0.021952573 0.20714414 
-0.03499242 3.9005554e-05 0.14730088 
0.064478606 -0.2031185 -0.43987834 
-0.05686574 0.09035697 0.35446596 
-0.11492094 0.060199514 -0.22466952 
0.14792946 -0.043859378 -0.36899027 
-0.012676983 -0.14998557 -0.23922236 
-0.09471496 -0.10770893 -0.3664413 
0.025649922 0.010003566 0.44456026 
-0.04907801 0.0904911 0.23718867 
0.018103452 0.102591164 0.27040216 
0.0020603603 0.12322005 -0.08148223 
-0.13193437 -0.08223599 -0.2354807 
0.1049268 0.1813694 -0.50403196 
0.08589056 0.105742715 -0.22123544 
-0.043089688 -0.2091896 -0.4542427 
0.0059248284 -0.11222402 0.11191413 
-0.042508207 -0.11846634 0.014274088 
-0.10166893 -0.07216546 0.3218505 
-0.13303131 0.060911234 0.3678391 
0.00016317307 0.16504447 -0.49265257 
0.06626698 0.13113342 -0.296382 
0.020882014 -0.059442796 0.41461408 
0.2131561 0.010446399 -0.46774882 
-0.019961927 -0.117172666 -0.005853249 
0.009410116 -0.20987576 -0.49770167 
-0.11251067 -0.16083808 -0.42565385 
-0.17019185 -0.028648706 -0.41396174 
-0.0028170522 0.1363466 -0.3553504 
-0.16111204 -0.053219877 -0.42185414 
0.1631568 -0.020574257 0.3386775 
0.12087236 0.07675613 -0.14761883 
-0.0042720903 0.18811798 -0.4353944 
-0.20712629 0.010182712 -0.47126067 
0.10058328 0.17149666 -0.40731478 
-0.01127468 -0.117534816 -0.32433453 
-0.14409278 0.07077863 0.18886074 
0.063391455 0.053783372 -0.48622435 
-0.02519203 0.09806996 0.38048053 
0.0928749 -0.093949705 -0.32204068 
0.059734844 -0.0016573807 -0.50262684 
-0.12958087 0.016940717 0.15417117 
0.13388044 0.13794783 -0.4436 
-0.17693302 -0.107243575 -0.10825162 
0.13276833 0.022011269 0.10901214 
-0.018030353 -0.0018138113 0.14097331 
-0.12804806 0.1682885 -0.46520966 
0.18194813 0.03157354 -0.42135224 
-0.035008617 0.022193497 0.22218978 
0.08929691 -0.13557802 -0.37966895 
0.12548073 -0.06528974 -0.09041744 
-0.06312885 -0.14191589 -0.012209564 
-0.03311945 0.055912696 0.15617 
-0.17863825 0.018510953 0.24993771 
-0.17344093 -0.030555934 -0.17180014 
-0.12793677 0.016737685 -0.1822085 
0.08229274 -0.11200214 0.04765436 
0.042705093 -0.010380295 -0.4995406 
-0.06067518 0.133672 -0.3127632 
0.076382734 0.01099425 0.46104872 
0.038465958 0.08146404 0.39059147 
-0.11416551 -0.03575428 0.15170333 
0.08646154 -0.10983252 0.1736542 
-0.07898359 0.044950403 0.19921519 
0.14812653 -0.11686465 -0.5000065 
-0.20429921 -0.021069316 -0.46021393 
-0.09410792 -0.10239303 0.2980904 
-0.11581016 -0.091943026 -0.23975198 
0.13403143 0.01627809 -0.5014772 
0.035845265 0.12798132 -0.35393712 
0.041870587 -0.116301246 0.03955086 
-0.07308237 0.16637357 -0.26826242 
-0.025244003 0.15141606 -0.28492832 
-0.19701305 0.035399813 -0.48908967 
0.15968998 -0.02667797 0.11709959 
-0.099822 0.17866299 -0.4578188 
-0.12267999 -0.029807677 -0.1785356 
-0.12221633 0.12449693 -0.39597154 
-0.17235214 -0.04340485 0.21942692 
-0.08924564 -0.08915072 0.37347382 
0.0011505863 0.18594219 -0.3944453 
-0.051032666 -0.10944999 0.09705532 
0.09803187 -0.092329465 -0.16681129 
0.015263628 -0.06031078 0.40576482 
-0.16418569 -0.09866901 -0.0732104 
-0.14259933 0.015149523 0.00776695 
-0.15440951 -0.014429328 -0.38150865 
0.07664041 0.19955973 -0.4472468 
0.047376063 -0.10940061 0.14286004 
-0.04395572 0.066167496 0.13544668 
-0.11826047 0.11979452 -0.2674953 
-0.0040150653 -0.1550531 -0.27395552 
0.012492892 0.10507148 0.2766809 
-0.12555009 0.13160752 -0.13568746 
0.07640601 -0.13669588 -0.28249735 
-0.009827492 0.019244967 0.4323321 
-0.003813245 0.005478663 0.48284233 
-0.118429124 0.111407585 0.050234612 
-0.1196737 -0.051489905 -0.5133398 
-0.08648304 0.08524015 0.37052318 
0.13507853 0.040996697 0.013781209 
-0.18496065 0.07877082 -0.4679305 
-0.10631657 0.05605246 0.055849742 
-0.016920103 -0.006131508 0.2211405 
-0.12934062 -0.056017373 0.15349026 
0.14130615 0.10039221 -0.38752934 
0.14100187 -0.04262689 -0.36114264 
-0.02858598 0.021750208 0.4396757 
0.11470507 -0.06346465 -0.07986975 
0.0026760371 -0.06487225 -0.5215684 
0.07977087 -0.093176916 -0.022533376 
-0.16089863 -0.005289909 0.1259945 
-0.033268947 -0.16619644 -0.48940346 
-0.11345883 -0.1659252 -0.42546844 
0.058620777 0.07874529 0.39370698 
0.1749927 -0.037414547 -0.26498938 
0.10697638 0.09412584 -0.34029645 
0.08441097 -0.083560966 0.3960023 
0.11428815 -0.07554296 0.16157016 
-0.068361044 0.124578014 -0.09859401 
-0.004654499 0.16412568 -0.51517487 
-0.15686937 0.049535558 0.17151335 
-0.056100443 0.07498491 0.23062994 
-0.10605975 -0.060105238 0.16654447 
0.15647796 -0.041359935 0.35929862 
0.11299764 0.1405873 -0.25974998 
0.09327506 0.15584674 -0.40687892 
0.097640134 0.08289587 0.085343994 
0.084162615 0.10505134 -0.07184337 
-0.16081497 -0.019819517 -0.39548805 
-0.0978352 0.0877615 -0.32139093 
0.0021533733 -0.16527462 -0.3733506 
0.042987738 0.11818779 0.07843278 
0.004514792 0.0644746 -0.49936104 
0.005210348 0.088120006 0.20382234 
0.050066695 -0.15865612 -0.49990636 
-0.055372704 0.11565943 -0.30367002 
-0.04768761 0.11751249 0.0080064 
0.12667768 -0.06764185 0.26054505 
0.14596567 -0.027951961 0.33361945 
-0.122641906 -0.06624969 -0.19006394 
0.04958604 0.11517517 0.035142235 
