-0.2258745 -0.30449656 0.019189315 
-0.06740816 -0.37050536 0.069834284 
0.17048141 0.13279878 0.31866923 
-0.36091536 -0.2077729 0.28356555 
0.26848227 0.2145707 0.074795075 
0.15782359 -0.2452947 -0.2217592 
0.10091576 0.40990683 -0.35863742 
-0.08199819 0.10620107 0.38177446 
0.30781257 0.40593633 -0.2002574 
0.055394214 0.28038558 -0.4158326 
0.23547871 0.306044 -0.37428394 
-0.08261789 0.2922549 -0.45118073 
0.24085598 0.028177036 0.39486116 
0.015030729 0.06602946 0.41505137 
0.04507436 -0.07888025 0.47061402 
-0.065826684 0.3060581 -0.3298275 
0.25393647 -0.12806562 -0.3815191 
0.04134317 -0.13974352 0.4545751 
-0.09440769 0.004520055 -0.45101953 
0.008010119 0.29969487 -0.42400298 
0.14426096 -0.030625647 -0.41314536 
-0.14014104 0.22734149 0.28402978 
-0.15806568 -0.07703014 -0.3948995 
0.35324043 0.1568015 0.069068745 
-0.23656134 0.21022059 0.2446008 
-0.12326475 0.29536346 -0.4300102 
-0.031409018 0.39353776 -0.16938154 
0.17301928 0.24086787 0.1514657 
0.3061909 -0.22924416 0.06755878 
0.016979687 -0.35187435 -0.054274116 
-0.35566446 -0.13631214 0.2876484 
0.23891266 0.22936933 -0.40418065 
-0.21616685 0.27858984 -0.16361241 
-0.31733197 0.14457808 -0.3228848 
-0.30677512 0.09272289 0.07068921 
-0.12279177 0.42504588 -0.08581227 
0.29174483 0.28110942 0.019359283 
-0.24421282 -0.26542094 0.11068044 
-0.13064612 0.15836571 0.3167635 
-0.18817584 -0.003222006 -0.4601415 
-0.03026415 -0.17895038 0.4362044 
0.18092483 0.4327054 -0.32933927 
0.31873095 0.1901103 0.029879235 
-0.06015226 0.3550348 0.016114537 
-0.090615384 0.4337811 -0.3815988 
0.32000846 0.15279467 0.096807815 
0.39002833 0.13678262 0.07479873 
0.13715434 0.49807388 -0.30132502 
-0.23664886 -0.07812506 0.41792887 
-0.03926061 0.09848077 0.39311382 
-0.13701458 -0.26950896 0.38602656 
0.40178406 0.22581553 -0.1766097 
0.1602422 0.39599445 -0.084694 
0.0057167145 -0.29795608 0.35768214 
-0.06272529 0.12428619 0.3748276 
-0.3045865 0.16228747 -0.25765002 
0.32429844 0.023326367 -0.47407454 
-0.24452907 -0.13665377 2.8347422e-05 
-0.25870946 -0.32188675 0.12351665 
0.28515738 0.09571289 0.26698795 
0.014659762 -0.0005207234 0.45573598 
0.2831632 -0.13182041 -0.28861946 
0.20087111 0.13153674 -0.4460928 
-0.19808929 -0.059386693 -0.45505482 
-0.19382684 -0.21354163 -0.036856435 
-0.21925113 -0.354306 0.1382546 
0.31118423 0.18361591 0.027100563 
-0.31571192 0.10719876 -0.15504865 
0.03334246 -0.30690706 -0.22075923 
0.10603283 -0.3152779 -0.08534376 
0.20788132 -0.038817182 0.41662797 
0.41864383 0.18664786 -0.19320075 
-0.28336015 0.15456054 -0.11982476 
0.12528989 0.2938712 -0.405135 
0.3328932 0.059603516 0.024359195 
0.32725063 0.0020264355 0.2904534 
0.34756362 0.009375829 0.118762836 
-0.18244535 -0.18330635 -0.23809333 
0.3428832 0.28087178 -0.03312566 
0.23414886 0.10549451 0.31473792 
-0.10085058 0.3798558 -0.02834291 
0.43463856 0.34970993 -0.30999646 
-0.327229 -0.031989396 -0.04137428 
0.08267014 0.015150587 -0.5289548 
0.3660345 0.07945669 0.09813858 
-0.32050428 0.05680905 0.34332737 
0.458425 0.3262491 -0.3067183 
0.3336645 -0.056695066 0.27414712 
0.03186673 0.3838014 -0.39102805 
-0.07991265 0.26650435 0.19748189 
0.12330581 -0.32049963 0.20594543 
-0.17834347 0.27057043 0.17885922 
-0.03788809 -0.25757515 -0.2921914 
0.20164214 0.42338806 -0.33026767 
0.27671775 0.18392462 0.12485999 
-0.15779345 -0.22142325 -0.11451397 
0.044393934 0.41974548 -0.2770681 
-0.31610158 0.059933174 0.184789 
0.1189286 -0.24642144 -0.2461838 
0.34544152 -0.029775646 0.24789 
-0.06936929 0.42016587 -0.11147529 
-0.28938475 -0.30147347 0.1578705 
0.003872495 0.17148912 0.32254666 
-0.21321958 -0.019507103 -0.43575686 
0.19960827 0.48485345 -0.2655549 
-0.3236294 -0.26471505 0.2991922 
-0.028504323 0.25532243 -0.4515958 
-0.2976937 0.21095681 0.16474777 
0.34781674 0.31958616 -0.07190915 
-0.1444761 -0.34064427 0.27473465 
-0.12954278 -0.3002767 0.35464025 
-0.33287162 0.0060965163 0.34215304 
-0.068684325 -0.33443436 -0.13554671 
-0.3141752 -0.12916073 0.40879178 
0.0020384556 -0.32851666 0.2503648 
-0.32280815 -0.2239505 0.36919734 
-0.2814603 -0.30548885 0.2676064 
-0.31845295 0.09408962 -0.18689257 
0.4436032 0.42860276 -0.2731216 
-0.16254546 0.27452993 -0.26278627 
-0.31035644 0.05483431 -0.09189728 
-0.381828 -0.19504474 0.2371316 
0.414343 0.18120351 -0.1291248 
0.25773463 0.33295095 -0.35732776 
0.37160188 0.082187854 0.10257469 
0.2177172 8.7989494e-05 -0.43459514 
-0.35008606 0.10832194 0.19933172 
-0.30230924 -0.0037292372 -0.20835185 
-0.31645733 -0.0013691533 -0.3113912 
0.37036255 0.15683575 0.065938845 
0.021527845 0.42556283 -0.14860846 
-0.053178694 -0.37589738 0.060601678 
0.09135507 0.37286687 -0.052438315 
-0.16136722 -0.2135824 -0.17049776 
-0.24535954 0.31496152 -0.110366695 
0.2658146 -0.07148654 0.37416202 
-0.04055457 -0.3907731 0.06454357 
-0.08130424 0.30910057 -0.2657373 
-0.020099219 -0.18155608 -0.46074313 
0.43012762 0.33729714 -0.2553871 
-0.21048635 0.18613234 0.32213688 
-0.27732065 -0.23467962 0.13980806 
0.18131849 -0.12469678 0.4383872 
0.22286624 -0.21854208 0.3261424 
0.004903484 -0.34775737 0.22058448 
-0.2765446 0.06300903 0.084009245 
-0.2704379 0.23257118 -0.17522708 
-0.28312236 0.091401234 -0.082158566 
-0.035145745 -0.36914647 0.029247666 
0.17668274 0.36838073 -0.3531733 
-0.25874606 0.15927647 0.31335637 
0.21775492 -0.10542208 0.42790246 
-0.0048591793 0.43882832 -0.33257776 
0.1926877 -0.17381795 0.35754812 
-0.1824522 -0.14609787 0.44452515 
-0.34217122 0.046213485 -0.2725941 
0.026779668 -0.049149383 0.45689318 
-0.18720195 -0.3949172 0.06551432 
-0.2890338 0.16490896 0.27007282 
-0.33509162 -0.23280843 0.20562565 
-0.19951989 0.19477394 0.32583576 
-0.32989866 0.003313494 0.34458855 
-0.012192354 0.04011723 0.43049854 
0.21859868 -0.17001474 -0.3434355 
-0.28656062 0.2239931 -0.011681731 
-0.3249268 -0.012699257 0.3757874 
-0.11174541 0.3447799 -0.46059802 
0.2607118 -0.2235924 0.22527993 
-0.28110474 0.1913876 0.027401024 
0.14642493 0.22069535 0.17365699 
0.16403829 -0.27416292 -0.10257297 
-0.10231602 -0.31344128 0.32607985 
0.27751207 0.31262478 -0.011012067 
0.30056086 -0.21003409 0.08960497 
0.33045295 -0.16134268 -0.1825357 
0.15962388 -0.20426215 0.39043275 
-0.018876608 0.41405082 -0.3103564 
-0.17694464 -0.322191 0.2826883 
-0.23481794 -0.18046935 0.40043804 
-0.26023784 -0.19639377 0.41138774 
0.2873079 0.19169722 0.093258455 
0.1880574 0.079798594 -0.47832516 
0.24948967 -0.26731548 0.02030254 
-0.2477275 -0.13777815 -0.042469654 
0.23563683 -0.17927037 0.33622587 
0.12584226 0.36427718 -0.36077356 
0.3119121 -0.14082162 0.16930191 
-0.011512191 0.37889767 -0.15932949 
0.11818238 -0.26088038 -0.22434336 
0.2577419 -0.13309324 -0.3230364 
0.42914805 0.15376522 -0.31328452 
-0.18589659 0.2751665 -0.24985616 
-0.276026 0.110368654 0.31561014 
-0.21574827 -0.18444008 -0.029040188 
-0.16242956 0.07667066 -0.43349835 
-0.20834619 0.18437293 -0.40524235 
0.065432996 -0.06657649 -0.43175235 
0.26722932 0.05605259 -0.45097235 
0.32486683 -0.084866606 -0.14097244 
0.08926933 -0.32786295 -0.15827624 
0.21301515 -0.054195937 0.4221635 
0.34918094 -0.09466374 0.14888132 
-0.29627565 -0.07375839 -0.29252145 
0.2004967 0.31874928 -0.012643681 
0.3696941 -0.052352544 -0.047417592 
-0.27979174 0.088453956 0.044303685 
0.39099133 0.19710518 -0.037995767 
0.37422737 0.2464033 -0.17010264 
0.054907776 -0.36410123 0.049154818 
-0.04937414 0.24178013 0.23255433 
0.3081101 -0.096307345 -0.35491738 
0.2719337 0.07063541 0.30704015 
0.14569922 -0.13850151 0.4490628 
0.2731881 -0.23505682 0.01785663 
-0.15885991 0.30049595 0.16436215 
0.16639033 -0.2382259 -0.2091837 
0.02890591 0.01687593 -0.5089854 
-0.26698476 0.13531435 0.3272921 
0.24202548 0.3874668 -0.33099553 
0.030752048 0.33768559 -0.39310974 
0.08078168 -0.16452256 -0.47304595 
-0.32000178 -0.2574915 0.30790356 
0.20708081 0.1873355 0.23006384 
0.048101205 -0.24363106 0.40111 
-0.04198294 -0.2079702 -0.3690083 
0.36732754 0.123203345 0.09234375 
-0.35074306 -0.0100660445 0.18951128 
0.091618694 0.046578124 -0.55134076 
-0.23202652 0.23747653 -0.30389315 
0.33533466 -0.11412385 -0.037798 
0.15602776 0.3528976 -0.018349007 
-0.21880184 -0.35680205 0.10106192 
0.03590728 0.32104522 0.025988001 
0.35836768 0.057333473 0.007677613 
0.34501836 -0.049487934 -0.36349016 
-0.09581149 0.406374 -0.05806177 
0.17010963 -0.29990742 -0.0009920672 
-0.2929589 -0.110461086 -0.022791503 
0.32928696 -0.04706462 -0.3960177 
0.32576573 -0.08503517 -0.32178077 
0.013444295 0.26655766 0.17393313 
-0.052589487 0.36050415 -0.19827932 
-0.33673516 -0.11229486 0.111465275 
0.3051783 0.44071528 -0.28820318 
0.42118093 0.09971146 -0.29079682 
0.015617966 0.26619303 0.19021873 
-0.11138925 0.15412453 -0.4190452 
0.103880696 0.48378187 -0.25270697 
-0.24311292 -0.29748252 0.08621718 
-0.29569215 0.11005754 -0.38895282 
0.116234794 0.37717408 -0.035482217 
-0.16596577 0.2652109 -0.31564376 
-0.204289 -0.11874403 -0.32411593 
-0.12851706 0.25250834 -0.4853729 
-0.26592177 -0.19087365 0.032453816 
-0.06006352 0.35305992 -0.019757293 
-0.31171104 -0.026295593 -0.0826436 
-0.23816642 0.27336773 -0.10309413 
-0.008475198 -0.2786941 -0.29887182 
-0.109978914 0.16960655 -0.4135601 
0.015307739 -0.27742976 -0.25112087 
0.21680255 0.0828994 0.37102276 
-0.30938005 -0.16548249 0.05832784 
-0.14382881 0.25543544 0.23105043 
-0.2317838 0.33431497 -0.117368646 
-0.09444517 -0.36616978 0.012777582 
-0.3435781 -0.13750245 0.2360945 
0.22675428 0.04941479 -0.4797229 
0.3484152 0.24290895 -0.05470168 
0.40729123 -0.00918478 -0.25988647 
-0.0513862 0.15185872 -0.48803002 
0.2042504 0.26282305 -0.40146652 
0.38202855 -0.023305614 -0.08217434 
-0.3188635 -0.055725094 0.017811168 
0.31726763 0.10594591 -0.4470789 
0.18274358 0.2571712 0.1306827 
0.1734097 -0.30391464 0.19573085 
-0.35293916 -0.08022338 0.14457795 
-0.28319827 0.019625442 0.028786913 
0.29239428 -0.016143173 -0.42782128 
0.28850415 -0.08323103 0.344432 
0.12987396 0.5199479 -0.29722625 
-0.34068236 0.110189155 0.19701755 
-0.2067536 0.16903004 -0.39811176 
-0.13232139 -0.21338932 -0.27366087 
0.30966213 0.10542456 0.20680696 
0.30690908 0.057929017 0.24734196 
0.051511645 0.23764575 0.24836542 
-0.07295735 0.20877029 -0.47745416 
0.17423066 -0.32102078 0.16995282 
-0.21417223 -0.35370263 0.08345405 
0.15637366 -0.28630188 -0.085601255 
-0.10882085 -0.1852178 0.4533618 
0.063720234 0.42127052 -0.3627356 
0.20528007 -0.13126966 -0.4204947 
0.330483 -0.089226894 -0.36447436 
-0.07427894 -0.3412701 0.0057500526 
0.33492643 -0.09175351 -0.2542378 
0.0065971776 0.20859505 -0.4637072 
0.4361124 0.17392474 -0.34785932 
-0.30965605 -0.07165992 -0.2757861 
0.18370995 0.33636278 -0.017073 
-0.32656428 0.048899297 -0.16829309 
0.4003697 0.023460284 -0.11683144 
-0.28555745 -0.29583663 0.29559296 
0.046636928 -0.36493218 -0.010233292 
-0.19426656 -0.18581592 -0.09254296 
0.09488411 0.14422417 0.33696863 
0.14201185 0.3764577 -0.0727187 
-0.34345296 -0.07347758 0.10351293 
-0.12561238 0.37526882 -0.41601488 
-0.16333972 -0.26337343 0.3870378 
0.35910547 0.20616384 -0.030753074 
0.18441069 0.3317062 -0.010458348 
0.14916892 0.14144872 0.31433862 
0.444839 0.028497923 -0.3094885 
0.24677423 0.45740256 -0.2521615 
0.19831008 0.20380154 0.23049818 
-0.121099144 0.21319629 -0.45586717 
0.11838857 0.17701349 -0.45001382 
-0.3415317 0.07404177 -0.31415322 
-0.018053718 0.23018558 -0.45571074 
-0.10931635 0.2859598 -0.4320716 
-0.33824953 -0.09557624 0.21410878 
0.03396221 0.07132724 -0.5118702 
0.3505302 0.005529887 -0.40812576 
0.24008727 -0.25153482 0.19293761 
0.0021745828 0.48467842 -0.32885543 
0.44526422 0.25922823 -0.30735365 
0.010343387 -0.027680734 -0.44346574 
0.03820871 0.052328322 -0.52715856 
-0.15622005 -0.31524667 -0.033512108 
-0.06973486 -0.16402552 0.4659511 
0.3163561 -0.023511026 -0.43387097 
0.15486455 0.4118396 -0.11025617 
0.033877563 -0.3691245 0.08369837 
-0.053996883 0.32045057 0.03917344 
0.34229657 0.39701217 -0.27270025 
0.25255212 0.04918916 -0.4747549 
-0.017987283 0.09683005 0.3770149 
-0.14099519 0.00867518 0.42684948 
0.24917649 -0.24030131 -0.07155951 
0.33255586 0.020894488 0.24721378 
-0.31090423 0.10381742 -0.13426161 
-0.021423932 0.35321692 -0.27299893 
-0.14626417 -0.37297165 0.088856936 
-0.124069214 -0.24005032 0.41214707 
0.05926986 -0.26885232 -0.27163592 
0.40039876 -0.02270317 -0.13100085 
-0.21204986 -0.15406488 0.45744768 
-0.11289867 -0.03768017 -0.42106816 
-0.28406212 0.20958991 0.009996761 
0.05411578 0.39017993 -0.21520337 
0.23751971 -0.26208377 0.18726309 
0.36032948 -0.040402703 -0.28514618 
0.2005076 0.03142735 -0.48095492 
0.25158313 0.036008283 -0.4851474 
-0.1175528 0.18526742 -0.43798432 
-0.22641064 0.30182743 0.076350346 
-0.13686284 0.16551466 0.33989957 
0.13245313 -0.29356444 0.2812962 
0.36376897 -0.038834516 0.2300501 
-0.3031252 0.08484387 -0.13371937 
-0.31801817 -0.30063868 0.18164703 
0.01162866 0.0097217085 0.44756338 
0.2684292 -0.11819633 -0.38248745 
0.0012122139 0.27747926 0.15053031 
-0.28332543 0.19835506 -0.019570464 
0.07635701 0.43380937 -0.13383718 
0.06439172 -0.24777131 0.41499037 
0.2460511 -0.15137318 0.3528999 
0.09583756 -0.060608897 -0.43195733 
0.23608465 0.1444649 -0.44679475 
0.13277717 -0.15906577 -0.45340675 
0.42805922 0.17689331 -0.20095688 
0.41313395 0.1514329 -0.39959663 
-0.3441497 -0.07162669 0.13086289 
-0.3085917 0.116772056 0.31485444 
-0.12804292 0.090317875 -0.45225823 
0.034742177 0.48938352 -0.33418113 
-0.174172 0.013062401 -0.4738536 
-0.1409398 -0.24447396 -0.2397429 
-0.10716898 -0.25181422 -0.2823751 
-0.1615232 0.23724061 0.2449887 
0.043509025 -0.2523034 -0.31869388 
-0.24670134 0.21795982 -0.29373774 
0.08975096 -0.28392467 0.35439318 
-0.18117012 -0.28501973 0.35375425 
0.3616188 -0.119593576 -0.22140895 
-0.28318208 0.043902982 0.05089049 
-0.33519888 -0.05812135 0.37724954 
0.23242642 0.42143708 -0.3259887 
0.32925233 0.24680364 -0.0018031553 
-0.16923878 -0.07518243 -0.42143896 
-0.019442547 0.42036608 -0.118251175 
0.049744852 0.1431206 0.364828 
0.27834427 0.33722278 -0.334185 
0.20397243 0.20116301 0.24249922 
-0.30753562 0.009673895 0.36108255 
-0.34099662 -0.23026699 0.21266001 
0.05966675 -0.32458863 -0.06071079 
0.3146325 0.1309869 0.12070916 
0.13719293 -0.22745219 -0.2731502 
-0.034535196 0.38919795 -0.16510166 
0.43430316 0.060054593 -0.37142152 
-0.33244076 0.03204445 -0.19668728 
0.31355587 -0.1397419 0.25918454 
-0.055878714 0.384626 -0.15978111 
0.080087356 -0.2839691 -0.23701899 
0.22593032 -0.26765692 0.004584853 
-0.1619544 0.29899612 -0.18853411 
0.3331147 -0.014626002 0.29087076 
0.1646636 0.20501253 0.23885633 
-0.10094702 0.3586762 0.010628043 
-0.35341117 0.08991959 -0.2543857 
0.3352944 -0.085608445 -0.1295625 
-0.37894157 -0.08433772 0.2603485 
-0.036312994 -0.28670448 -0.22398518 
0.32831827 0.064894855 0.20856766 
-0.20972353 -0.24067102 0.025692027 
0.265233 -0.20592432 0.25973523 
-0.19968416 0.28274974 0.1744523 
0.24373673 0.30770198 -0.046828337 
-0.106917396 0.35781157 -0.16091429 
0.004977431 -0.2084523 0.44854352 
-0.21165317 -0.13817039 -0.25825855 
-0.25572878 -0.022414275 0.41977262 
-0.30257094 -0.012885118 -0.2360752 
0.365838 0.26049092 -0.14888152 
0.3347826 0.3444838 -0.34061933 
-0.09929417 -0.26123625 -0.24094747 
0.20849979 -0.010195855 -0.43619996 
-0.32813793 -0.20429878 0.22052085 
-0.09254983 -0.2589077 -0.26962462 
-0.28961703 0.061387036 0.35499832 
-0.13202739 0.09369148 -0.46313003 
0.19732381 0.47083402 -0.299109 
0.13999341 0.43614897 -0.13375281 
-0.22553353 0.25505272 -0.2774346 
0.29839042 0.29015255 -0.00076270476 
0.020434551 0.47135186 -0.26332906 
-0.052325346 0.33568162 -0.4233566 
0.3568121 -0.08272157 0.29449248 
0.32101765 -0.13933066 -0.25074473 
-0.17192326 -0.37040645 0.16796774 
0.1926432 0.39021605 -0.34824958 
0.37898523 0.03763551 -0.43610606 
0.31254318 -0.15456551 0.029364638 
-0.025266897 0.33786064 -0.27977356 
-0.118661255 -0.1430768 0.45590353 
-0.1724693 0.013372199 0.4211413 
0.37784356 -0.086230084 0.07109993 
0.020988852 0.42833918 -0.26473132 
-0.045134936 0.16696964 -0.49519607 
-0.3053861 0.16202779 0.23791118 
-0.33103198 -0.12652875 0.085595086 
-0.22767802 -0.17407599 0.4295975 
-0.16184552 -0.30432507 -0.08121312 
-0.21724238 0.27647206 -0.23811014 
0.40040013 0.12773195 -0.103354484 
0.20201279 -0.2490389 -0.08011511 
-0.24177854 0.25991616 0.11300203 
0.17784663 0.19779734 -0.43540803 
-0.27040586 0.069001555 -0.3411402 
-0.3622962 -0.09980661 -0.062764436 
0.16237988 0.45869422 -0.28562406 
-0.168996 0.32683548 0.103585444 
-0.29181582 -0.2985863 0.3094007 
-0.18241386 0.24663953 0.2537604 
0.06965143 -0.12896289 0.45790896 
-0.16823854 -0.36536863 0.19504748 
-0.26146325 0.073505975 0.37881693 
0.27633265 0.45390788 -0.30681205 
0.39974856 0.21907789 -0.14752452 
-0.041960426 0.39139104 -0.07213047 
-0.16316546 0.40056598 -0.1393683 
-0.2958903 -0.10013531 -0.08429233 
-0.093521304 -0.057723556 -0.41183737 
0.375434 0.27667147 -0.34630254 
-0.19320607 -0.22071467 0.007718361 
0.14758779 0.4770376 -0.25745472 
-0.2186506 -0.15914494 0.4363324 
-0.034908257 -0.21523607 -0.37957153 
-0.11172741 -0.17628336 0.45578963 
0.31719443 0.109299384 0.18838483 
-0.26688465 -0.33436283 0.19290926 
-0.25605774 -0.106585816 -0.19653715 
-0.2504886 -0.3623445 0.22747307 
0.14901394 0.3553724 -0.023273109 
0.33220774 -0.15505026 -0.19371985 
-0.25616312 0.24929698 -0.25060022 
-0.21968865 -0.32914278 0.03252273 
0.12612769 0.31982702 0.056171604 
-0.0786373 -0.19722821 -0.31016922 
0.10958141 0.20951593 0.28358272 
0.3591244 -0.08905552 -0.21244264 
0.18506247 -0.25513607 0.2742031 
-0.12159838 0.21880187 0.2989629 
-0.34330928 -0.10632305 -0.09813129 
-0.2560727 -0.0060162046 -0.40618548 
-0.2716904 -0.09952979 -0.106723055 
0.041243635 0.38866916 -0.18558976 
0.3283879 0.3984485 -0.2655496 
0.018321298 -0.10721056 0.45620567 
-0.34419745 0.019805685 -0.3040816 
0.319087 -0.0066114054 0.30678606 
-0.28823107 0.18015262 -0.29117683 
0.405365 0.10942749 0.0420871 
0.049489524 0.1716853 0.32774922 
0.33072665 -0.13067032 0.0015309611 
0.2979239 -0.14587593 0.23057441 
-0.12724842 0.3423175 -0.1550965 
-0.06740303 -0.082403995 -0.45272693 
-0.08932732 -0.08436111 0.4638873 
-0.19251601 -0.009936642 0.42924437 
0.043819893 0.032717895 0.4514031 
0.39934945 0.13134106 -0.009064982 
0.14359336 -0.3258086 0.16167253 
-0.016888194 -0.0023228284 0.43324944 
-0.03326028 -0.38970783 0.18881175 
0.16908239 -0.0139307 -0.5081419 
-0.29628426 0.17550825 0.11539411 
0.3181832 0.34054294 -0.10390775 
-0.11992242 0.3500845 -0.38817853 
-0.16025235 0.22850727 -0.35717958 
-0.3411175 -0.05862402 0.15084833 
-0.060350377 0.2716475 0.16576175 
0.24191965 0.44697648 -0.31299967 
0.1599378 0.50257844 -0.2668194 
0.32335982 0.18241826 0.03862464 
-0.029902956 -0.25686702 0.3809103 
0.17336507 -0.267331 -0.014712578 
-0.19483677 0.06918742 0.38358104 
0.21606101 -0.021888703 -0.3997196 
-0.096938126 0.2528242 -0.47064728 
-0.17196362 -0.3353609 -0.01088249 
0.2134906 -0.15123236 -0.35502756 
-0.2033946 0.2850952 0.12215793 
0.11434866 0.45541373 -0.22716384 
0.13842437 -0.2650517 0.3473477 
0.1240136 0.3000888 0.06328293 
-0.2535998 -0.0753385 -0.1841853 
0.38226685 0.38612926 -0.3084932 
0.3441919 0.27858555 -0.016437672 
0.042040594 -0.10030938 -0.4463368 
0.18239026 0.25069317 0.11819126 
-0.02611357 -0.26357764 0.39293468 
-0.013609907 0.008043726 -0.4739297 
-0.14319737 -0.15287896 0.43605152 
-0.020217413 -0.17336275 0.45041093 
-0.21419077 -0.114254564 -0.2129604 
-0.1298485 -0.11263852 -0.3774947 
0.3319264 0.08083087 -0.43991244 
-0.3097106 -0.062118493 0.40462625 
-0.17213403 -0.265479 -0.084947534 
0.17669304 0.3833232 -0.35018894 
-0.30739582 -0.128484 0.41384605 
-0.121753536 -0.19421852 -0.293299 
0.1916611 -0.0026079589 0.39489985 
-0.26019326 0.29542774 0.10106124 
-0.13475898 -0.072118565 -0.3870408 
0.35454103 -0.041395005 0.18742631 
-0.34760562 -0.2703575 0.19699986 
-0.10892307 -0.28365707 -0.22020878 
0.31204554 0.16148767 -0.41781142 
0.2467254 -0.22533078 -0.070034616 
-0.15435643 -0.29433712 -0.10995976 
-0.3296526 0.0019391436 -0.23946385 
0.10941912 -0.2846541 0.32564998 
-0.19112946 -0.3628614 0.08117421 
-0.28331903 -0.049637973 -0.18396786 
-0.2721024 -0.09483661 -0.13713303 
-0.27763447 -0.20585142 0.14954895 
-0.012267068 0.43685606 -0.13542518 
-0.3458466 -0.13068306 0.038441367 
0.31945488 -0.1552976 -0.012499286 
-0.2175184 -0.1553398 -0.13114494 
-0.030944727 0.39860454 -0.41247743 
-0.0031411666 -0.25070202 -0.35476896 
-0.0962386 0.2913546 -0.2263673 
-0.05786409 0.16850327 0.32364932 
0.19383302 0.331787 -0.02954864 
-0.021608211 -0.29600352 -0.23052296 
-0.0662352 0.087598525 -0.4737963 
-0.12612437 -0.36714026 0.22042285 
-0.13115817 -0.05073584 -0.4025918 
-0.023498062 0.29132652 0.13990155 
0.31086025 -0.18703467 0.02756414 
-0.0078114513 -0.090314254 0.46471772 
0.30936816 0.32497412 -0.3525418 
-0.36196712 -0.05517279 -0.046448242 
-0.2558505 0.26564357 -0.021539634 
0.3325547 0.13979328 0.089075565 
0.3842934 0.07405521 -0.12143772 
0.16542938 -0.29225484 0.23651376 
0.37629414 0.056890093 -0.10366121 
-0.2603518 0.0027978604 -0.38185593 
0.06862312 -0.20634894 -0.4325313 
-0.3354823 -0.059346892 0.22754183 
-0.33826324 0.056256406 0.32395446 
0.38882875 -0.013276577 -0.2982709 
-0.10183543 -0.18193914 0.45427233 
-0.09285202 0.33015138 -0.34462002 
0.031305667 0.3574617 -0.39497367 
0.27661732 -0.1682328 0.30753914 
0.32749447 0.23014568 -0.3879096 
0.34615564 0.06319424 0.033908933 
-0.14130682 -0.2504025 -0.14151283 
-0.28366378 0.18292879 -0.27972773 
0.11301776 -0.3285941 0.19037989 
-0.1926541 -0.25071526 -0.044754162 
-0.011292321 -0.3145124 0.31597537 
0.30937994 -0.13626717 -0.09197471 
-0.09080884 0.43030968 -0.35863405 
-0.34440264 -0.30149177 0.30272976 
0.051559363 -0.28054833 -0.23272373 
-0.27755138 0.23001389 0.014011687 
-0.36449775 0.019823099 0.22987436 
-0.3383074 -0.07823375 0.05419283 
-0.23497611 -0.04866126 -0.33435926 
-0.22534734 -0.15328693 -0.10136125 
-0.32853398 -0.22539714 0.3627209 
-0.04414559 -0.3756514 0.08064305 
-0.29426885 0.08640519 0.0066729654 
0.13420357 0.19581228 0.2790961 
-0.3088723 -0.018158305 -0.27635932 
-0.084673546 -0.33394933 -0.13540363 
0.05230902 0.2219719 -0.438868 
0.068468526 0.027839508 0.4440238 
-0.12612319 0.37256777 -0.15413488 
0.07350185 -0.23557706 0.4013588 
-0.19243966 0.35011044 -0.06382328 
0.0244932 0.4538241 -0.2632077 
-0.030695869 -0.3351151 -0.06651065 
0.31927136 -0.12867783 -0.02284795 
0.33151194 -0.11610064 0.0692827 
-0.12957151 0.33316204 0.05848513 
-0.24472603 0.1919272 -0.13875681 
0.20087694 -0.045435183 -0.40236536 
-0.1811921 -0.11339362 -0.33886343 
-0.3102075 0.058875453 0.18981948 
0.40672943 -0.0020011622 -0.28716895 
0.13455562 -0.26569775 -0.17178763 
0.13246089 0.42685622 -0.12844597 
-0.15490682 0.13303664 -0.44799808 
-0.06563149 -0.08652861 0.4657726 
-0.18496083 0.20458318 0.31927052 
0.25323614 0.384641 -0.17202023 
0.055963214 0.2375932 0.2142303 
0.41711295 0.23930706 -0.18207523 
0.26446924 0.35483304 -0.13349698 
0.08786506 5.0502946e-05 -0.5074532 
-0.3421216 0.10411721 0.22434363 
0.13333887 0.17243928 -0.44248807 
-0.12787317 0.39583483 -0.40587267 
-0.29605076 0.18192719 0.16050427 
0.35534093 0.024849886 0.10383252 
-0.317402 -0.016397817 0.17176849 
0.19669016 -0.14618225 -0.43774208 
0.08934029 -0.20690219 -0.4450277 
0.058901347 0.37558433 -0.3777615 
0.18496457 0.4728131 -0.2680912 
-0.15329358 -0.09395877 -0.3366314 
-0.3527518 0.01057345 -0.20521268 
0.34599152 -0.09648825 -0.18130718 
-0.18287252 0.008264697 -0.4445234 
0.077160314 0.19767879 -0.46521822 
-0.2117663 0.13296132 -0.4082484 
0.14026675 0.36252418 -0.37273502 
0.24036606 -0.25376475 0.11962442 
-0.009179857 0.19771035 0.30512908 
0.36343923 0.08270573 -0.016571863 
0.35661578 -0.042092413 0.16278061 
-0.008933631 0.40181735 -0.39389095 
0.3880151 0.108997226 -0.100579195 
0.043300018 0.01668062 0.44251132 
-0.09721258 0.29449892 -0.3122619 
-0.06913806 -0.3036553 -0.23832983 
0.19425686 -0.1547475 0.39749914 
-0.0059559126 0.39642873 -0.16596968 
0.023036089 -0.3586451 0.16467148 
0.29395673 0.20010194 0.040119663 
0.08212414 0.27258864 0.14836296 
0.0099720005 -0.34471115 0.23838176 
-0.031167934 0.18836953 0.3197564 
-0.112135 0.047796518 -0.469928 
-0.32482892 0.089003764 0.117883235 
0.09903542 -0.09137435 -0.4641032 
-0.32542002 -0.057388373 0.03510075 
-0.158635 -0.20754462 -0.13729492 
-0.15365864 -0.05925744 -0.42752007 
-0.2008819 -0.26412147 0.043405063 
0.24564883 0.16576736 -0.4154118 
0.1396927 -0.053874243 -0.4132049 
-0.25104344 -0.11838643 -0.057792436 
-0.095148824 0.032924075 0.41098103 
0.3825753 -0.015657242 -0.08311812 
0.2997651 0.29481587 -0.04760023 
-0.3165041 0.1526302 0.14325663 
-0.05156767 -0.23573092 -0.31179973 
-0.20901619 -0.1195424 -0.2719206 
0.26461592 0.4198318 -0.21394859 
-0.31663227 0.019322155 0.19015989 
0.053845644 -0.35841876 0.1277734 
0.27384856 0.4762604 -0.28030798 
-0.11469315 0.18112035 -0.40433756 
0.35536814 -0.0010787208 -0.38625872 
-0.3419983 0.08819405 -0.2289036 
-0.3154467 0.027913328 0.38307306 
0.14477047 -0.2953903 0.2487415 
-0.045293562 -0.12946786 -0.38923293 
0.114690006 -0.30699128 -0.09277255 
-0.20143527 0.27978703 0.16617337 
0.4762402 0.33189034 -0.3176027 
-0.038137924 -0.38017416 -0.009570014 
-0.2961571 -0.31318656 0.2161351 
-0.3005035 0.16147445 -0.2622054 
-0.2763373 -0.21151379 0.042145755 
-0.18842244 0.013794666 0.41340587 
0.23729049 -0.12543458 0.37057588 
-0.026704244 -0.10158886 0.46564728 
-0.3244555 0.123146206 0.26060286 
-0.17867166 -0.24418612 -0.029591542 
0.31191054 0.4140602 -0.20364685 
0.3516065 0.047680996 0.0841009 
-0.3296047 -0.09350391 0.21486036 
-0.26728466 -0.2260287 0.054358497 
0.36563525 0.046540752 -0.44765788 
-0.2760608 -0.3222789 0.12566617 
-0.3713193 -0.007799379 0.21893609 
-0.12627363 -0.32178295 -0.12688532 
0.28360277 -0.021995628 -0.44085795 
0.2866234 -0.15547392 -0.24809837 
0.33218092 0.029514493 -0.4877648 
0.28303435 -0.017643195 -0.44517234 
0.23532668 0.099837154 0.3449109 
0.01589047 0.1817497 -0.4720615 
-0.13198712 0.061066303 0.4042612 
-0.33100536 -0.13243216 0.07312845 
-0.34288982 0.14177796 0.18954277 
-0.04979361 -0.3707183 0.09997976 
0.4038232 0.25840214 -0.20565265 
7.4179843e-07 0.27766773 0.10635068 
0.33451515 0.30065364 -0.0697019 
0.13536526 -0.1230572 -0.4508012 
0.22382767 -0.1434184 0.377316 
0.3411368 -0.12000162 0.033704832 
-0.01292561 -0.12598644 -0.4255182 
-0.26272696 0.21372083 0.20731717 
0.17035203 0.08183502 0.39485317 
-0.055574093 -0.3372003 -0.08000773 
0.25592473 -0.253139 0.028248144 
-0.15544732 -0.37587878 0.09235597 
0.2849039 0.06344503 0.28505707 
-0.3686966 -0.08904954 -0.08422701 
-0.30969512 0.13693233 -0.2879021 
-0.08983743 -0.34928724 0.25928184 
-0.31809616 -0.26047912 0.16954553 
0.33806124 -0.043909512 -0.280479 
-0.28878352 -0.09593998 -0.09941006 
-0.3776364 -0.06360075 -0.056022648 
0.06626968 -0.10287127 -0.47490686 
-0.37392807 -0.1889711 0.36391804 
0.049233004 -0.32301798 -0.16676757 
-0.12810181 0.23212014 -0.42587048 
-0.06799912 0.24472678 0.2393799 
-0.14860708 -0.035796076 -0.4446142 
-0.0879582 0.22604664 0.25772426 
-0.2771836 0.21604967 0.1566547 
-0.25908086 -0.24518263 0.3704609 
-0.047776118 -0.37871915 0.020300502 
-0.040262647 -0.15301333 -0.4026543 
-0.29552236 -0.01227214 -0.17140357 
-0.23139305 -0.2519846 0.37582782 
-0.2632401 -0.09568191 -0.11601769 
-0.13420552 0.105065964 -0.4398971 
0.13473865 -0.12114963 0.45913398 
-0.23274592 -0.13388164 0.42795995 
-0.36186555 0.061005305 -0.19318447 
0.18405567 0.4363958 -0.13917938 
-0.06800906 0.39014915 -0.053128712 
-0.30259565 0.05168953 0.025137365 
-0.18517849 -0.34898904 0.22208205 
0.35975206 -0.073063545 -0.18510973 
0.28182185 0.29869762 -0.045594707 
-0.17532195 -0.165702 -0.21287808 
-0.11662025 0.26297662 -0.45544103 
-0.2420284 -0.35744324 0.26004383 
0.049935408 0.027780399 0.42613423 
-0.26751137 0.00247447 -0.4101665 
-0.33494976 -0.11610706 0.40319377 
-0.1438802 -0.34315178 -0.021208046 
0.05767424 0.2725048 0.1399761 
-0.17634238 -0.18812525 -0.14782543 
0.1768845 0.30179802 -0.3953194 
-0.1361803 0.40823367 -0.10077852 
-0.26560983 0.11105685 0.36760065 
0.087394 0.29448065 0.082063675 
0.0677648 -0.35717416 0.038517565 
-0.13186423 0.24388239 -0.4572814 
-0.12808824 -0.08821563 -0.39872342 
0.07727828 0.18391162 0.27392778 
-0.110292 0.066723354 0.4089704 
0.23526955 -0.22024941 0.29974464 
0.0787614 0.24254689 0.20958559 
-0.239267 0.30941662 -0.007254589 
0.11215298 -0.23320363 -0.33221814 
0.037287567 -0.0011118378 -0.48124722 
0.14778833 -0.32697338 0.03735795 
-0.28329596 -0.17427057 0.048245408 
-0.28484806 -0.010139239 0.049405757 
0.15287036 -0.017932681 -0.5352477 
-0.19620465 0.1725667 -0.4545787 
0.11178119 -0.36130726 0.09836684 
0.035460792 -0.12436879 0.4313821 
-0.19855237 0.1869536 0.30784342 
0.040720876 0.3817242 -0.24610607 
-0.35834435 0.0029077758 0.3186858 
0.18345347 0.10918024 -0.4762615 
0.3080055 -0.14633732 -0.2841188 
0.4358827 0.3685779 -0.29822403 
-0.3513829 0.086160734 -0.24388519 
-0.09066841 -0.38194993 0.13383271 
0.22159797 0.20980993 0.1829618 
0.031078491 -0.25040737 -0.3177331 
-0.25109884 -0.106356524 -0.29844928 
0.30625507 -0.1902301 0.15810041 
0.040743895 0.3104848 0.05027076 
-0.24713326 0.25862673 0.092081234 
-0.11902191 -0.37083647 -0.0065008253 
-0.19769622 -0.3430372 0.14198087 
0.07423265 0.1524128 0.34997672 
0.28158846 0.16304474 0.16253467 
-0.124497466 -0.3087939 -0.13648668 
0.4369752 0.048520543 -0.31232202 
0.1317602 0.21664408 0.24668293 
-0.23514156 -0.3703003 0.22155376 
-0.24808238 0.13557571 0.3606654 
0.057425026 -0.21421143 -0.4025556 
0.15768579 0.19194627 0.2571701 
0.044816088 0.3833296 -0.22968763 
0.0142620625 0.4209845 -0.18433833 
-0.23787627 0.3118381 -0.09729814 
0.14117879 0.3480921 -0.010842291 
-0.058243692 -0.12075635 -0.43343017 
0.21408899 -0.18028654 -0.3692161 
-0.18114889 -0.18261205 -0.16655192 
-0.014757434 -0.37392423 0.041941397 
0.31013107 -0.099064745 -0.326421 
-0.22572513 0.3429129 -0.10790238 
0.027194243 0.30092436 0.054649107 
-0.20746537 0.005349542 0.41049892 
0.27486783 0.0756891 -0.46664894 
0.120967425 -0.23208432 0.39187136 
-0.2729063 0.22600073 0.07974773 
-0.2840415 0.20629139 -0.0781605 
-0.19838056 0.37095484 -0.08994873 
-0.23679858 -0.07014506 -0.3706884 
0.4481418 0.086451456 -0.3609135 
-0.30395263 0.13077381 0.26267257 
-0.15834181 0.27196467 0.17715007 
0.19372678 -0.18603474 0.37255478 
0.41407683 0.36007407 -0.31212524 
-0.34228143 -0.05392236 0.37619206 
-0.19408487 0.2948011 0.12158983 
0.13581559 -0.30816928 0.21256398 
0.25395894 0.43562046 -0.3121347 
-0.30727547 0.12402006 -0.34681717 
0.3313669 0.3520995 -0.12235402 
-0.13371375 -0.1373515 0.47002655 
0.076537244 0.3003014 -0.40910593 
-0.23592739 -0.124535844 0.44102815 
-0.29880708 0.020665478 -0.12749387 
0.33087602 -0.15550622 0.06735042 
-0.2807007 0.12728588 0.30195692 
0.34533855 0.055018283 0.06394041 
0.41622669 0.09060018 -0.24547131 
0.40193087 0.103982836 -0.17761546 
0.11958262 -0.11408512 0.4527994 
0.15364689 -0.07136137 -0.40536875 
-0.1783179 0.33463427 0.014588674 
-0.3099153 0.17645216 0.08481479 
-0.012881844 -0.046311792 0.46377844 
-0.25697768 -0.24116981 0.14821078 
0.17824465 -0.10451902 -0.4507219 
-0.19823359 0.37345243 -0.07731274 
-0.33583733 0.04229715 0.3235797 
-0.32808194 -0.11794095 0.22491743 
0.058154125 -0.3390535 0.20349087 
0.18086115 0.18689528 0.23284861 
-0.12247916 0.2045058 -0.40185374 
0.3431536 0.4250979 -0.29483646 
0.2329474 0.08152188 0.36687553 
-0.22679383 0.1313908 -0.4298699 
0.21904095 0.24505821 0.09487734 
-0.3216524 0.05201231 0.24614565 
-0.33884484 -0.11593208 0.09144609 
0.30257565 -0.18533294 0.003572451 
-0.34223303 -0.10673501 0.37096003 
-0.34082493 -0.19173743 0.24844715 
-0.29763648 -0.017925076 -0.22037558 
-0.04167271 -0.37074125 0.028807249 
-0.009631197 0.3928701 -0.067325406 
0.2102056 -0.0667757 -0.41166425 
-0.31899172 -0.12774064 0.16546251 
0.04053112 0.39926586 -0.26817554 
-0.058598407 -0.33692893 0.23354606 
0.34757295 -0.10634217 0.045766406 
-0.27047065 0.27371258 0.021963172 
-0.16384073 -0.37009653 0.18048535 
0.025226627 0.014893508 0.43840924 
-0.15822662 -0.030485861 -0.46396565 
0.26975018 0.3540492 -0.12431465 
0.29469144 -0.10820134 0.322189 
-0.2771061 0.09589967 -0.071827665 
0.3185942 -0.12655522 -0.30513194 
0.32185793 -0.12258139 0.23795837 
-0.3766515 -0.036036395 0.24775691 
-0.3565279 -0.1271139 0.38482547 
0.35970384 0.009414621 0.039833125 
-0.37119514 -0.06243062 -0.039434582 
0.18115565 -0.24255298 0.32823882 
-0.064767614 0.3344981 0.04443794 
0.41457194 0.16429546 -0.11634713 
0.05353087 0.23529851 0.23166554 
0.1850777 -0.23139733 -0.16263193 
0.31232232 -0.12624696 -0.28890675 
-0.24278124 0.0043545263 -0.43303138 
-0.1668443 -0.20077762 -0.28198716 
0.3482646 -0.035886653 0.2500478 
0.36970478 0.11565471 -0.42403042 
-0.3229249 0.16383837 -0.11872202 
0.3220629 0.28424883 -0.004786879 
0.22034916 -0.2561715 -0.030437429 
0.327181 0.35037968 -0.12016076 
0.053779695 0.40122 -0.22914109 
0.37419912 0.041084994 -0.032470495 
0.23528777 -0.11646579 -0.4007787 
-0.30840266 -0.025595589 -0.0861674 
-0.009076906 -0.073051475 -0.42930397 
-0.057807513 0.40683645 -0.39438993 
-0.23485334 -0.13892649 -0.080128744 
-0.028292803 0.46966845 -0.31244677 
0.201984 -0.19530319 -0.30739108 
0.23200944 0.29868627 -0.3680775 
-0.2461542 0.29874858 -0.07453431 
0.016902357 0.34283003 -0.40864524 
-0.33875385 -0.019360524 0.13221504 
0.0039034602 -0.3191668 0.30824676 
-0.031557757 -0.14429872 -0.40593153 
0.24240269 0.060297552 0.36240742 
-0.14912 0.2178018 -0.35173562 
0.31414697 0.22407264 0.0048801987 
-0.20263968 -0.07990753 -0.37278324 
0.23669772 0.12449086 0.299334 
-0.14713985 0.18985529 0.31985736 
0.3121527 -0.1316053 -0.03559208 
0.051857222 0.051220275 0.42128226 
-0.08323616 0.24491332 -0.47172964 
-0.04284381 0.40681484 -0.3069513 
-0.0687747 0.27018616 0.17525384 
0.4442174 0.20931314 -0.34470096 
0.40582046 0.00027826242 -0.15808378 
-0.11904438 0.26552624 -0.45819107 
-0.2874536 0.1326137 0.048738174 
0.22814748 0.24127795 0.12750034 
-0.11586581 0.281078 -0.25525582 
-0.3414042 -0.04273542 0.15889108 
0.060474727 0.12209976 -0.4873279 
0.34418446 -0.019327879 -0.29198816 
0.2688866 -0.107420094 -0.37794885 
0.009555192 0.37868774 -0.19147804 
0.40585405 -0.0034764614 -0.13442305 
-0.0031170622 0.21171924 0.3085401 
-0.22031307 -0.15546666 -0.074006125 
0.15730579 -0.30866736 0.18968093 
-0.32728112 -0.052099705 0.38154235 
0.31697297 -0.10579551 -0.2876088 
-0.24901675 -0.12539938 -0.005461849 
-0.09013457 -0.082684785 -0.42701608 
-0.21628542 -0.17018008 -0.059176195 
-0.21397275 0.3489823 -0.10308442 
0.027122205 0.44815198 -0.36010256 
0.34095854 -0.073119566 -0.27640066 
-0.04213627 0.3419166 -0.19420877 
-0.0024770843 -0.016590495 0.45819476 
-0.07487995 0.33183596 -0.18061802 
-0.30469164 -0.059664898 -0.32456806 
0.31735963 0.11688474 -0.4398305 
0.24967334 0.15612629 0.21689245 
-0.37039918 -0.049395345 -0.07762375 
0.21349533 0.26684624 0.079588205 
0.32640523 -0.106420755 -0.10003572 
-0.26344055 0.2164955 -0.10878949 
-0.115253 -0.27688977 0.37099224 
-0.075848565 -0.10656924 -0.43142945 
-0.23950025 -0.06734193 0.43415904 
0.22026452 -0.0893365 0.39781138 
0.27651945 0.18470378 -0.41518843 
-0.09937089 -0.077620864 -0.4138345 
-0.17295039 -0.3047217 0.33592153 
-0.2709253 0.25038853 0.025935361 
-0.31611037 0.060729332 0.18821739 
-0.14165816 0.27220884 0.17428671 
0.17154002 0.1684586 -0.4426425 
-0.04020004 -0.1974154 0.4460299 
0.2820043 0.14545058 -0.42924592 
-0.009041703 -0.095324636 -0.43482482 
0.11941391 0.23616368 0.18078148 
0.33543384 0.12766705 0.10607601 
0.07836973 0.45248467 -0.20300074 
0.16166276 0.42933318 -0.13060372 
0.15586685 0.40412226 -0.084281765 
-0.12135667 -0.17748186 -0.3389949 
-0.15289612 0.38166103 -0.42915726 
0.14882566 -0.3396966 0.07166071 
0.02410918 -0.10475374 0.45975253 
0.29404196 0.15810554 0.13387641 
0.1627244 0.4895692 -0.30692676 
0.21304335 0.2563091 0.09175697 
-0.33873135 0.035489973 0.19689363 
0.00049330166 -0.27163175 -0.32330596 
-0.1230551 -0.13134201 -0.34845245 
-0.35557687 0.09657758 -0.25287107 
0.081902705 -0.1996227 -0.42602083 
-0.05360401 -0.30827886 0.3347139 
-0.35450882 0.032652993 -0.24136047 
-0.19322999 -0.36189178 0.17003797 
-0.083155125 -0.1594207 0.45731843 
-0.113475524 0.20386986 -0.46289107 
-0.22635332 -0.2551926 0.39694777 
-0.10634379 0.06983136 0.39875194 
-0.22672686 0.037331983 0.40033853 
0.01888285 0.10729658 0.34945104 
-0.16614169 0.36016068 -0.018378984 
-0.34027797 -0.3206548 0.23899838 
0.24216045 -0.014648769 -0.42669415 
-0.15790212 -0.2427433 -0.073885866 
-0.1603646 -0.19829337 -0.26731977 
0.37220842 0.082788676 0.08463451 
0.19301713 0.2739752 0.09053853 
-0.3563309 -0.2888624 0.23916943 
-0.31652534 0.030695736 -0.31428266 
-0.061095312 -0.10975119 -0.42479372 
-0.384994 -0.17358713 0.36333966 
0.09505838 -0.31888568 0.23796102 
-0.1306897 -0.2970381 -0.13243806 
0.014594824 -0.33874345 -0.08641366 
-0.15694134 -0.3855524 0.091059744 
-0.31142014 -0.22702838 0.19577968 
0.36055064 -0.014194524 0.030253576 
-0.3039071 0.05147214 -0.31467587 
-0.3415358 -0.13224822 0.1363627 
0.22858155 -0.1444982 0.38451192 
-0.024799287 -0.00910281 0.45353243 
0.28313196 0.17031756 0.123508684 
-0.03322817 -0.0847687 0.47117594 
0.26811022 0.2218524 -0.3835886 
-0.019156186 0.34737918 -0.1900906 
0.33052048 0.39574793 -0.22851561 
-0.30921808 -0.009332851 -0.28491685 
-0.29501355 0.008814671 -0.13951662 
-0.21781613 0.29362348 -0.123782106 
-0.24004377 0.29343626 0.11455032 
-0.060473464 0.16848342 -0.49608618 
-0.31948075 0.11765514 -0.22021632 
-0.31288144 -0.0763814 -0.29368922 
-0.21015981 0.34349602 -0.08777357 
-0.13146608 -0.36074245 -0.034318462 
0.26969725 -0.008606723 0.37368074 
-0.20825739 -0.059238598 0.43861434 
0.22986858 -0.25632772 -0.01985349 
0.20011792 -0.24334925 -0.08644254 
0.4070523 0.0035421425 -0.101498626 
0.31399676 -0.16526885 0.14975569 
0.056356866 0.0837882 0.3946962 
0.19217537 0.43431672 -0.19771555 
0.3086207 -0.13699768 -0.13839106 
-0.29853964 0.028182404 -0.07599188 
0.09221777 -0.1743638 -0.4548495 
0.0014869608 -0.022116743 -0.419782 
0.27585295 -0.03383664 -0.45281857 
-0.037943725 -0.36147612 0.02528207 
-0.30827826 -0.0720317 0.07450618 
-0.34927207 0.05892752 0.28134802 
0.37032923 0.23028739 -0.094537914 
-0.23397906 -0.32448876 0.29939252 
-0.16770568 0.28976625 -0.28774202 
-0.04892775 0.20559417 0.29263934 
0.068030074 0.123355426 -0.49068427 
0.12145531 0.27881482 -0.41074628 
-0.18158883 -0.25397304 -0.0780476 
0.065272406 0.4578054 -0.25664458 
-0.28452617 0.13388777 -0.11201125 
-0.06741642 -0.30672216 -0.19421916 
0.13604064 0.50281286 -0.30198917 
0.32704356 0.18850102 0.022971775 
0.36648223 0.1436234 0.07344895 
-0.27980787 -0.20546752 0.38572612 
0.32719317 -0.11777981 -0.30113974 
0.3992326 0.13753846 -0.03179708 
0.0008577518 -0.33388308 0.25083822 
-0.08209364 -0.35623172 0.00973488 
-0.36948487 -0.09054655 0.3010412 
-0.17663875 -0.37737542 0.13937022 
-0.13599405 -0.24152945 -0.19492362 
-0.25345972 -0.22999111 0.03335772 
-0.25262678 0.24896155 0.089411944 
0.21903045 -0.18762267 -0.1667004 
0.3572394 -0.0673146 -0.042336978 
0.22522983 -0.018707946 -0.42536658 
0.20980932 -0.04418793 -0.47129992 
0.40721798 0.37831157 -0.21983357 
0.04488823 0.34009808 -0.39173487 
-0.02666484 -0.27062318 -0.3147695 
-0.12898524 0.4018959 -0.09801494 
0.0697737 0.30095026 0.0668728 
-0.2913532 0.16775085 -0.23147386 
0.276929 0.23944594 0.031561576 
-0.36306873 -0.25050467 0.25382593 
-0.06474974 -0.3263354 0.30721548 
-0.34239793 -0.2996164 0.23109804 
-0.18217409 -0.061796967 -0.432346 
0.043656863 0.35562292 -0.011620909 
-0.124832764 0.33618474 0.069897085 
-0.38805908 -0.1932219 0.25192663 
-0.31996173 0.03553603 -0.22317223 
0.231591 0.32443652 -0.35255343 
-0.15013632 0.3879769 -0.43866444 
-0.16825566 0.23846047 -0.32360792 
0.01252749 -0.27450982 -0.25772846 
0.2551867 0.21500684 0.10036863 
-0.2401852 0.2428527 -0.1626403 
-0.34088668 -0.03374707 -0.061906677 
0.42256513 0.35303405 -0.32444194 
0.17490844 0.40406147 -0.34557083 
-0.3163645 -0.17887755 0.21172155 
-0.039806638 0.1861516 0.3310135 
0.3211122 -0.13061234 -0.029999603 
-0.25394008 -0.034678217 0.41808465 
0.33597618 0.14637126 -0.41809928 
0.30169147 -0.15160973 -0.126048 
0.18892944 -0.2651061 -0.04536345 
-0.25552148 -0.34743246 0.24805886 
0.07526262 -0.25044835 -0.3554371 
-0.11405394 -0.21575122 0.4266424 
-0.31504893 0.090725474 0.3356796 
0.31156582 -0.16143137 0.008858766 
0.11675139 -0.1444541 0.45065618 
0.05599824 0.42186892 -0.2434118 
0.22783412 -0.1571655 0.35297284 
0.44709346 0.32408983 -0.2493652 
0.32155702 -0.17512691 0.09159273 
0.09351434 -0.33866438 0.026616834 
0.17166032 -0.11567628 0.43222654 
0.18547302 0.3135971 -0.0023791343 
0.23442635 -0.0984849 0.41421363 
-0.27160946 0.23484674 -0.26437363 
0.35193405 0.22093353 -0.40310073 
-0.35013694 0.057593536 0.24769841 
0.04619224 -0.33204693 0.25296926 
-0.11130812 -0.2996651 -0.22696918 
-0.20484932 -0.26099917 0.38084513 
-0.110963285 -0.12833868 -0.38902223 
-0.034947142 -0.23197845 -0.33998397 
0.02741694 -0.014514654 0.4515911 
0.077733584 -0.35990462 -0.046959117 
0.03911395 -0.036119275 -0.43498832 
0.13481763 0.23850521 0.19873911 
0.39374778 0.023509419 -0.3287794 
0.23978546 -0.15190868 -0.3163765 
-0.10536481 0.189457 0.30690292 
-0.2730654 -0.21604124 0.3777542 
-0.059450295 -0.37012312 0.090178065 
-0.40214598 -0.076977104 0.27891824 
-0.28363508 -0.20400947 0.3904149 
-0.07833088 -0.12044793 -0.424602 
0.2063115 0.43672574 -0.20641747 
0.25752535 -0.24469513 0.16157493 
-0.2549868 -0.20180029 0.37241328 
-0.14393261 0.114763275 0.36942792 
-0.26817164 -0.22318181 0.08161121 
-0.17811422 0.34395146 -0.158257 
0.23114997 0.3207094 -0.07682084 
-0.0673579 0.36779886 -0.39896154 
0.40161818 0.07748756 -0.4308874 
-0.16082205 0.35010383 -0.43178615 
0.26071212 -0.25194937 0.044591706 
0.17820439 -0.16505873 -0.4475026 
0.3530341 0.016707381 -0.4497861 
-0.2622238 0.110068776 -0.42114982 
0.32791576 -0.10942238 -0.0162287 
0.122002296 0.42769435 -0.121561654 
0.044779737 -0.0978126 0.4425017 
-0.32155922 0.13723874 0.24353793 
0.32312942 0.40323445 -0.20450123 
-0.0783722 0.24633838 0.2375648 
-0.12843868 -0.08805353 -0.41287634 
-0.13997991 0.3011144 -0.21517494 
0.11709396 0.44415095 -0.34960738 
-0.12437332 0.3000355 -0.45164114 
0.091691576 -0.27941793 -0.25063455 
0.39030707 -0.023079555 -0.09624593 
0.15493838 -0.207926 0.3874602 
0.43778422 0.16964917 -0.26921633 
-0.19522756 0.0030171373 0.41830322 
0.18224728 -0.28469604 -0.027779076 
0.061252102 0.23820846 0.21894225 
-0.00040305033 -0.20337823 0.442341 
-0.27512994 0.12118785 -0.40478665 
-0.05883223 -0.33056527 -0.042378727 
0.20309772 -0.28874767 0.025380112 
0.28791225 -0.05037855 -0.40881002 
0.40854675 0.25785282 -0.3519346 
-0.032053273 0.13575214 0.3616144 
0.36514798 0.049953174 0.01726726 
-0.11039838 0.28809607 -0.28329366 
0.08763939 -0.033178583 -0.45033133 
0.043909132 -0.025053874 -0.47484112 
0.10222659 0.26799026 0.12425407 
-0.26774582 -0.3186782 0.30089915 
0.23789418 -0.20862518 0.33914024 
-0.29792896 0.087177984 -0.12064154 
-0.2812413 0.15916194 -0.31269976 
0.0066381893 -0.240258 0.41201654 
-0.2973265 0.1634164 -0.30312327 
0.37384632 0.27532056 -0.35617194 
-0.053970944 -0.06888612 0.45188716 
0.44514593 0.23774289 -0.295077 
0.15114617 0.07657859 -0.47999796 
0.04863919 -0.028856693 -0.45479304 
0.15486497 0.2482933 -0.39363155 
-0.3523 0.039220728 0.31294087 
0.31991035 0.12245611 0.15205397 
-0.038626336 0.41806516 -0.1165788 
0.022782069 -0.3766173 0.14424506 
-0.34555045 -0.0679663 0.005032868 
0.1398749 0.26159728 0.11393602 
-0.2850369 0.012897642 0.031208374 
-0.096100084 0.28507975 0.12975372 
-0.19652636 0.28329605 -0.17195928 
-0.2914659 -0.2149094 0.19433637 
-0.0040787472 -0.32061628 0.32431266 
0.35500857 0.01475128 0.17759527 
0.16724081 -0.16587412 -0.43243742 
-0.33424777 0.00277917 0.121455625 
0.2523107 -0.24362089 0.18271431 
-0.12916967 -0.106836565 -0.4008704 
0.33341905 0.21258478 -0.3783832 
-0.06512898 -0.3823617 0.03505299 
-0.19952413 0.3505736 -0.105793715 
0.0330612 -0.3426099 -0.13107164 
-0.27406245 -0.060492802 -0.3563576 
0.33845583 0.10446539 0.14232042 
-0.11282918 0.0605617 -0.45285568 
-0.122356735 0.09437732 -0.44013226 
0.31632695 -0.098955065 -0.33353186 
-0.21369044 -0.29903162 0.007960891 
-0.31626925 0.023227442 -0.07962614 
0.33741716 0.27131897 0.018522972 
0.4423944 0.09209796 -0.29098016 
0.09789546 0.11961932 0.37126815 
0.057307087 0.39033058 -0.38332513 
0.007920771 -0.0649397 0.45125318 
0.3868383 0.091001876 -0.010041643 
-0.02114819 0.28070107 0.105170965 
-0.1560036 -0.30142316 -0.06785986 
-0.037259888 -0.36407292 0.11388302 
-0.11640691 -0.31205142 0.36400032 
-0.23070365 -0.13366498 -0.16878918 
0.0584751 -0.19960426 0.41190135 
0.12568906 0.092876405 -0.49049193 
-0.23268816 0.29941142 0.11517465 
-0.04347298 -0.17526518 -0.4233907 
0.1978289 0.07197289 0.38636208 
-0.31846362 0.056166288 -0.10659502 
-0.37150624 -0.1864446 0.35918987 
-0.27841812 -0.3086714 0.30028635 
-0.30688637 0.023170145 0.09418754 
-0.334407 0.019444022 0.33415332 
-0.0402656 -0.19384201 -0.41909942 
0.05774812 -0.27067032 -0.30423337 
-0.2729973 0.08781059 -0.37781203 
0.031519204 -0.18016747 0.44599864 
0.04349851 -0.3470792 -0.100036144 
0.25506666 0.4459371 -0.20866871 
0.22841306 0.4165147 -0.17412268 
0.43517303 0.11092879 -0.3093969 
0.11803895 -0.3435226 0.12480622 
0.41855142 0.1400452 -0.39931247 
-0.010062594 0.3704292 -0.016051546 
0.38295788 0.08146832 -0.087435156 
-0.039669123 0.29223138 0.10538566 
-0.2535294 -0.35546568 0.09262062 
0.35630068 -0.03018595 0.17761222 
-0.051601447 0.45142314 -0.37800896 
-0.33274558 -0.07456197 0.19792795 
0.013164046 0.3191252 -0.42008212 
0.2797349 -0.17935073 -0.18916939 
-0.28765655 0.049487438 -0.041107286 
-0.090235166 0.29299107 -0.4398086 
-0.033573203 -0.14997643 -0.42464748 
-0.36936635 -0.09229188 -0.077581435 
-0.32723013 -0.0006226045 -0.3280384 
0.04852636 -0.33632913 0.22889942 
-0.108154535 0.33300725 -0.4387388 
-0.26703545 0.016872393 -0.33591482 
0.13790321 -0.34166482 0.09595059 
-0.2097592 -0.32877845 0.1678868 
-0.28880778 0.038939383 0.0129070515 
-0.27830315 0.07091228 -0.015160194 
0.36999747 0.40441915 -0.29957515 
-0.13076514 -0.10520094 -0.35323653 
-0.0044694454 -0.31458154 -0.18988985 
0.17922597 -0.018749787 -0.48624098 
-0.16162492 0.4325676 -0.12760957 
-0.20449445 0.024464145 -0.40940326 
-0.025246471 0.22919728 -0.4554994 
0.1030787 0.05183339 0.4189112 
-0.25655898 0.22477162 -0.09732117 
-0.34682226 -0.22334385 0.21562877 
0.008297441 0.044653375 -0.5129021 
0.3939506 0.20068908 -0.043481648 
-0.33791405 -0.107309766 0.1454189 
-0.28896984 0.049748734 -0.04470908 
0.46080688 0.2758077 -0.23762667 
0.32322648 0.123333566 0.15219706 
0.19377027 -0.21648581 -0.18705074 
-0.13832405 0.13770238 0.3542375 
-0.29315457 -0.21105821 0.18132317 
0.28109622 0.12353589 0.21763729 
-0.3060239 0.10893649 -0.12529358 
0.20967217 0.2520081 -0.40470225 
0.34831572 -0.05688334 0.14690147 
-0.07391258 0.34713033 -0.0070933145 
0.43256524 0.14041993 -0.31327334 
-0.17935908 -0.3672825 0.17075185 
0.30304572 -0.1587899 -0.07386828 
0.22544816 0.27573302 -0.38634753 
-0.09887768 -0.30023977 -0.19862288 
0.35950908 0.12518175 -0.40280703 
-0.020833306 -0.24907519 -0.33900508 
0.15294744 0.31756195 -0.3828031 
0.2733192 0.13735212 0.23466942 
0.16595791 -0.2720812 0.2862571 
-0.22362071 0.28022346 -0.18512943 
0.29184756 -0.21717708 0.09590161 
-0.11533444 -0.29827297 0.3225185 
-0.008614624 -0.33938727 -0.1385764 
-0.0666208 -0.2432612 0.41259673 
0.121480785 0.21948607 0.20600018 
0.23503768 0.3516337 -0.124725714 
0.23985273 0.4763696 -0.29084003 
-0.13521828 0.36781976 -0.4265544 
-0.27641156 0.23247424 0.11646089 
