0.13853696 0.10088363 0.017951919 
0.08941101 0.043068968 0.0043945964 
0.039592087 0.026615145 -0.046375565 
0.04471029 -0.26974759 0.010054455 
0.081348784 -0.35583374 -0.15173787 
0.022348788 -0.047857836 -0.066104144 
0.19914728 0.012308447 -0.15071245 
0.053414598 -0.45135826 0.025629763 
0.04736219 0.3772362 0.11907746 
0.21199036 0.31759688 0.09909241 
0.08422901 0.36319208 0.053069174 
-0.068377934 -0.098390795 -0.28638893 
-0.07504292 -0.060246658 -0.05464322 
-0.032673314 -0.20764779 -0.34910172 
0.029296853 -0.24181646 0.028648296 
-0.07157241 -0.08726891 -0.32432133 
-0.09958935 -0.25307396 -0.037277974 
-0.12002973 -0.092535846 -0.21407409 
-0.039762337 0.043535907 0.073132366 
0.00021943392 -0.10117641 -0.076005824 
0.041303292 -0.13730016 -0.0547588 
0.091695525 -0.2527553 -0.10559859 
-0.083658636 0.0355419 0.013033809 
-0.024235412 0.209982 -0.13167724 
0.11006135 0.14515416 -0.02442866 
0.21589251 -0.1548662 -0.2229231 
-0.07479998 -0.047829483 -0.31221423 
0.03344721 -0.23365714 0.019007731 
-0.104221806 -0.12925747 -0.20862363 
-0.0464082 -0.004080738 -0.17837255 
-0.033720683 0.39149585 0.25811586 
0.17370394 0.31085148 0.04871375 
0.0086747445 0.3338844 0.138994 
0.18664253 0.22736691 0.016883468 
0.003559642 -0.03313862 -0.024079334 
0.008580115 -0.42334032 -0.04047181 
0.04743647 -0.48504853 -0.065329134 
0.12705615 0.3315982 0.056226652 
0.10927566 -0.4158922 -0.12281554 
0.03505742 -0.39220628 0.027688965 
-0.07889028 -0.07186397 -0.10038024 
0.088770285 -0.24546692 -0.1253367 
0.014863559 -0.23603877 0.027238416 
0.08545431 -0.39274055 -0.16795422 
-0.10531448 -0.2959578 0.009200668 
0.028063502 0.043385185 -0.058820166 
-0.06499099 -0.12657021 -0.15603393 
0.025461491 -0.13115425 -0.21947171 
0.11741548 0.06621375 0.053669713 
0.04975481 -0.49405527 -0.033775404 
-0.09173975 -0.0090135075 -0.11909795 
0.021020088 -0.35387608 -0.10971903 
0.007986994 -0.39433095 -0.05130327 
0.09716372 -0.01665755 -0.099677525 
-0.044220164 -0.14237607 -0.09990112 
0.03910297 0.17979085 -0.15381098 
-0.02400786 0.23042151 -0.13832773 
0.3000089 0.28263667 0.026046243 
0.09752104 -0.4048859 -0.11026754 
0.07928251 -0.37415454 -0.08608761 
-0.08634227 -0.23361985 -0.37667727 
0.2128832 0.30228576 0.0083335275 
0.24551457 -0.107513644 -0.18472905 
-0.027453339 -0.08378738 -0.22327809 
-0.037511908 -0.30366367 -0.081046976 
0.34251732 0.18345617 0.007325464 
-0.019906703 -0.24418119 0.11330058 
0.07561948 -0.1067662 -0.18718028 
0.055362362 0.20252956 0.036890402 
0.2539001 -0.13035749 -0.1960365 
0.12944447 -0.05140833 -0.09282281 
-0.06445251 0.3393585 0.29114518 
0.17342614 0.041246682 -0.1474435 
0.0494652 -0.24936788 -0.0085534025 
0.026283307 0.33452407 -0.10030208 
0.02284763 0.31826076 0.12689735 
0.05905653 -0.4296219 -0.036216334 
0.07248637 -0.4039969 -0.03486395 
0.17938493 0.2013227 0.050538633 
-0.083945714 -0.28053015 -0.0533301 
0.037540734 0.09749998 0.14936739 
0.08521892 -0.11087654 -0.16843003 
-0.13255714 -0.11445215 -0.2249259 
0.087312564 -0.26023734 -0.06937696 
0.168842 0.1499085 0.040726453 
-0.08672347 -0.06356131 -0.25527716 
-0.086284116 -0.019082218 -0.026721803 
0.06470704 0.29066896 -0.018051604 
0.09131084 0.19838776 0.10408353 
0.07920568 -0.1783413 -0.16474684 
0.12497569 0.089133926 -0.0015670162 
0.33415976 0.18338372 0.008295456 
0.016518129 -0.47520244 -0.026008036 
0.03392137 0.31225613 -0.02863867 
0.015868835 0.32219797 0.14198217 
-0.08929727 -0.04075776 -0.059263103 
0.07466962 -0.5007435 -0.032027785 
0.040260732 -0.000604265 -0.14744925 
0.26091686 0.20834094 -0.033963047 
0.06123942 -0.047762156 -0.087148674 
-0.02836383 -0.010420793 0.04856371 
-0.04158074 0.09992192 -0.01974146 
0.28977892 0.2934841 0.036227148 
0.02589026 0.29974467 -0.0018103621 
-0.059368644 -0.13550675 -0.30742842 
0.048689544 0.27214617 -0.047132675 
-0.03345498 -0.20050316 -0.34325808 
0.08131536 0.25464457 0.10169384 
0.01555263 -0.19821395 -0.04553764 
0.022979148 0.37324685 0.11735121 
-0.00039000012 -0.37066588 -0.06882555 
-0.039083302 -0.37602735 -0.016017046 
0.13777427 0.16139992 -0.024332728 
-0.07521553 -0.22257906 -0.36911973 
-0.088295534 -0.2310785 -0.38476315 
-0.054312453 -0.13772428 -0.3166053 
-0.095882885 -0.29329556 0.009719634 
-0.08229423 -0.072449006 -0.12969391 
0.19614919 -0.16026561 -0.22000268 
0.048211068 -0.19721195 0.007371005 
0.040350776 -0.30538496 0.015910797 
-0.00039087664 0.0954169 -0.0425263 
0.044632874 0.19249606 -0.14413835 
-0.013128883 0.31483793 0.26206473 
0.18842983 0.27558988 -0.002139459 
0.031877913 0.25552663 -0.12778538 
0.1786363 -0.04089863 -0.12832351 
-0.0048918743 -0.24499379 0.045193773 
-0.0011229414 -0.26650023 -0.16281554 
-0.015230651 -0.25702477 -0.16189127 
-0.0017835185 -0.05050284 -0.21006165 
-0.07268133 0.4261964 0.29389453 
0.19851138 0.33113694 0.031290453 
-0.066925384 0.43110725 0.29338193 
0.036167946 0.1559858 0.071491875 
0.04266266 -0.2770987 0.011917364 
0.06903286 -0.3918283 -0.06528904 
0.02256051 0.31472018 0.17114082 
0.02175479 0.007611975 0.058830876 
-0.03962987 -0.09453753 -0.044946525 
-0.068340145 0.059489008 -0.07832313 
0.16955459 -0.045462243 -0.18910103 
0.3115717 0.20308852 -0.018607123 
0.1773562 -0.1347114 -0.18538223 
-0.021303808 0.10847843 0.064188786 
0.04432898 0.09152408 -0.028212303 
0.16731524 -0.019756397 -0.16395693 
0.03229575 0.10480561 -0.028778736 
0.06751532 0.18991108 0.0679502 
-0.026094368 -0.33105066 -0.07660419 
0.037465964 0.35443765 0.052657355 
-0.08175822 -0.30447257 -0.03553959 
0.08361953 -0.25969696 -0.049077526 
0.0033836935 -0.11959988 -0.077631816 
0.052128125 -0.2595559 -0.014517449 
0.18020333 -0.06509253 -0.19717869 
0.055082943 0.0016353991 0.035258755 
0.049517166 0.2152026 -0.0019251453 
0.07369874 -0.24182522 -0.020223867 
0.0894657 -0.19509193 -0.0564736 
-0.0028030607 0.18040358 -0.15682872 
-0.10860479 -0.05708367 -0.28009626 
0.08618003 -0.045013245 -0.0725921 
-0.09583585 -0.11707361 -0.26607 
-0.038804065 -0.3177707 -0.07782241 
0.06639324 0.14545526 0.10071389 
0.0044327066 -0.37757912 0.019842654 
-0.025608191 -0.24487378 0.1358621 
0.08352924 -0.42237455 -0.028890926 
0.031245632 0.28689042 -0.06538854 
-0.10095291 -0.16345814 -0.3748466 
0.0032553512 -0.16258553 -0.2198881 
0.034100447 -0.40972778 0.044658333 
-0.08830172 -0.006250708 -0.017054183 
0.08975868 -0.30496413 -0.08668499 
0.029151395 -0.2465131 0.052641097 
0.037017964 0.13712528 0.0901212 
0.09115337 -0.35974175 -0.13997418 
0.010310528 -0.13637558 -0.07431275 
0.01519529 -0.23310173 0.030464932 
-0.022059716 -0.40271357 -0.012577007 
0.18319908 0.022520088 -0.14021558 
0.07381229 0.24169338 -0.034133125 
-0.016063433 -0.022797735 0.024810664 
0.110395096 -0.041670766 -0.0601328 
-0.06879358 0.34943902 0.34103227 
0.06223086 0.27308115 0.05542201 
0.12101154 0.08083522 0.0048041125 
-0.099495806 -0.12510997 -0.2505046 
0.06925327 -0.057440035 -0.07484189 
0.054784596 -0.2659847 -0.1590824 
0.07646906 -0.3110844 -0.03629396 
-0.048460737 -0.22201256 -0.07373014 
0.04794063 0.3096426 0.15639648 
-0.14100401 -0.2739917 0.020717107 
0.009883623 -0.3937184 -0.020445438 
0.021982053 -0.24606319 -0.18704626 
0.06657306 -0.39384708 -0.10121984 
0.061586365 0.29088157 -0.019671943 
0.10800489 -0.023819454 -0.08226808 
0.058451027 -0.015756661 -0.15106174 
-0.041992635 0.39383158 0.26606292 
0.060108338 -0.2400256 -0.014720536 
0.08572196 -0.016559483 -0.09511892 
0.102713406 -0.40389964 -0.15109573 
0.00031347977 -0.37373784 -0.06967022 
-0.030420793 -0.19760904 -0.3256528 
-0.007452342 0.12114902 -0.0023970536 
0.16798572 0.15068692 0.039473325 
0.056175873 0.20166655 0.0038388984 
-0.044888962 -0.36429235 -0.01568468 
-0.020694494 0.2147218 -0.12816362 
0.23784691 -0.16531628 -0.20485388 
-0.003004125 0.35230473 0.18225397 
-0.02493753 -0.05196919 -0.026136264 
0.09786202 0.34416714 0.099824935 
0.13004172 -0.33534378 -0.114564344 
0.047432553 -0.03361449 -0.076550364 
0.049314365 0.36935705 0.14424026 
0.09506801 -0.18723376 -0.06985196 
-0.07889897 -0.06997192 -0.26366922 
-0.0002945225 0.36528885 0.24482381 
0.062490206 0.3071158 0.13122398 
0.11910051 -0.41342402 -0.16336296 
-0.011991256 -0.25458178 -0.026066946 
-0.051711082 -0.2563088 -0.076018155 
0.058112316 0.16148645 0.08145347 
0.08079334 -0.3843551 -0.1310282 
0.07392603 -0.38897955 -0.028405873 
0.052155126 -0.10720549 -0.20632048 
-0.09309067 -0.03963841 -0.08195191 
-0.025312247 0.33388054 0.28311285 
0.085624285 -0.35284287 -0.124732435 
-0.10859154 -0.21840374 -0.3928835 
0.025701892 -0.3334472 -0.13928701 
0.07075607 -0.27080005 -0.14186732 
0.06886348 -0.3872676 -0.12861228 
0.05383009 0.36919546 0.1382218 
0.028007993 0.16459578 -0.15444128 
-0.02961339 0.29909185 0.00017403923 
0.0075163115 0.08846916 -0.045140367 
0.17357813 -0.18377408 -0.23741087 
-0.046010062 -0.33332434 -0.00013907778 
-0.08889676 -0.02231416 -0.12859741 
-0.065849684 0.33305386 0.30359787 
0.07971101 0.084380895 0.09821082 
0.03775386 -0.10758585 -0.072471865 
-0.046517123 -0.2701331 -0.13373601 
0.02366328 0.02095978 0.07247488 
0.1722302 -0.12028066 -0.17358795 
0.13494013 0.08892823 0.049874395 
0.2621905 0.25211516 0.033756666 
-0.115460135 -0.10978648 -0.25443232 
0.009394066 -0.46791574 0.01521692 
0.022633988 0.31744674 0.13953859 
0.23036592 0.2977188 0.016789818 
-0.01949219 0.30891675 -0.03054841 
0.029411735 -0.050421912 -0.2004954 
-0.037768584 -0.277178 -0.011789436 
-0.06350908 -0.013772359 -0.17141324 
0.07337225 -0.38897613 -0.030889746 
-0.014535743 0.059757635 -0.105107516 
0.026262507 -0.3821099 0.042071305 
-0.015991187 0.061166175 -0.1028679 
0.0074528484 0.2574511 -0.021678448 
0.02380363 0.064363085 -0.05100334 
-0.0002737315 0.20924579 -0.11958573 
-0.12220638 -0.10061681 -0.24751875 
0.16672432 -0.1396101 -0.2118995 
0.04401738 -0.0055471095 0.036647037 
0.031880658 -0.3638402 -0.10773164 
-0.038484994 -0.11581574 -0.09685726 
-0.010820321 -0.33130765 0.026833827 
0.11193772 0.1502958 0.105489425 
-0.06532098 -0.1122006 -0.29431966 
0.08786489 -0.23076469 -0.14221372 
-0.028393507 -0.21657853 -0.34709185 
0.024761967 0.3730338 0.1971347 
0.039601743 0.23225081 -0.0096215205 
0.0111377025 0.13585962 -0.0028074365 
0.055327844 0.3692854 0.14683983 
0.040544275 -0.45817584 -0.067409694 
0.024277344 -0.42750627 -0.019510388 
0.09207639 -0.20818485 -0.098346494 
-0.031138944 -0.43198636 -0.012230601 
0.08967812 -0.3064204 -0.0598064 
0.20858763 0.33365148 0.10096859 
-0.038478334 -0.22377259 -0.15158881 
-0.075038955 -0.14441207 -0.20732972 
-0.01375899 0.27110913 -0.11467434 
-0.110539325 -0.12348689 -0.24691407 
-0.10896833 -0.122260794 -0.23978475 
-0.0129946 0.12490758 0.027873302 
0.041289315 -0.12034123 -0.082067266 
0.12886484 0.1534565 0.09712241 
0.26210287 0.30158427 0.006418517 
-0.046557866 0.34439874 0.25722495 
0.14978383 -0.37473628 -0.14503394 
0.2056215 -0.14735386 -0.2235682 
0.072121575 -0.28088883 -0.13114746 
0.12577358 0.1334827 0.09431882 
-0.08737213 -0.09062094 -0.19925477 
0.16774489 -0.16564782 -0.2221276 
0.14399865 0.118118405 0.0039606346 
0.07144419 0.31620944 0.00092432974 
0.07774655 -0.40008673 -0.0059646238 
0.081582636 -0.08395553 -0.08781693 
-0.12164468 -0.10551281 -0.2571232 
0.051980462 -0.166413 -0.20800747 
0.009788076 0.13581632 0.005440262 
0.11396608 -0.3677025 -0.17961371 
-0.004687144 -0.08940658 -0.07094988 
0.18014191 -0.13998522 -0.19800547 
-0.10580917 -0.1135881 -0.2755912 
-0.006408007 -0.2308178 -0.025492234 
0.13292237 -0.010819242 -0.1433637 
-0.073791265 -0.07209953 -0.071247004 
0.17031862 0.16841866 0.056752782 
0.12232305 -0.38691896 -0.109823234 
0.050638426 0.29351774 0.11924577 
0.09097092 -0.17466228 -0.09425737 
0.20477752 0.33034155 0.063266344 
0.06887363 -0.08265109 -0.18709356 
-0.04734723 0.36199892 0.27895314 
0.085872516 0.03662075 0.018215528 
-0.047358595 -0.09165391 -0.013885337 
0.03339059 -0.00038415715 -0.16043544 
-0.14979921 -0.2716964 0.031935688 
-0.06546154 -0.12763394 -0.15757209 
-0.011937571 -0.28488266 0.051751982 
0.21473075 0.26597434 0.04589901 
0.09135336 -0.22370274 -0.09370504 
0.04075761 -0.4160352 0.0471781 
0.17655584 -0.043180663 -0.12559214 
0.08304198 -0.27893677 -0.050909698 
-0.048251536 -0.33936584 -0.0020030928 
0.07424255 -0.24954402 -0.15487808 
0.033738617 0.13434264 -0.017927555 
-0.12264596 -0.117225945 -0.20043094 
-0.0020977557 0.31926244 -0.015993472 
-0.030668553 0.21642895 -0.17735434 
-0.036891676 -0.19110724 -0.088723674 
-0.07929228 -0.111841515 -0.26256046 
0.061279856 0.029822681 -0.015238525 
-0.0038951852 -0.35456595 -0.08530617 
0.09797022 0.1628114 0.11691065 
-0.044427153 -0.03812929 -0.19626369 
0.004110819 -0.12677935 -0.22314747 
-0.027597843 0.37683532 0.22998351 
0.29318908 0.28301582 0.004291607 
0.119897425 -0.3281518 -0.10349674 
-0.062309958 0.35506082 0.30033273 
0.11365029 0.11221995 -0.011147784 
0.040817685 -0.28165895 0.013922568 
-0.038472913 0.10409844 0.0018292811 
0.02266751 -0.25863796 -0.17706454 
0.26190662 0.15512994 -0.053973913 
0.19202568 0.24580951 0.034032404 
-0.03729927 0.3567394 0.28020892 
0.15976416 -0.40463892 -0.13748357 
-0.084755525 0.029320115 -0.09046656 
0.01274714 -0.020823566 0.0027507758 
0.051667407 0.34728932 0.15921359 
-0.05262082 -0.0847867 -0.23506594 
-0.0923726 -0.28189796 0.005438076 
0.23554054 0.28131413 0.020713288 
0.045146834 0.21275719 -0.13022609 
0.27229926 0.19107194 0.00428567 
0.078926176 -0.20098394 -0.16154456 
0.06887642 -0.02936348 -0.08626253 
-0.021017274 -0.15865931 -0.21871987 
0.00025241112 -0.11900965 -0.22448036 
0.019580968 0.1636228 -0.15602182 
-0.01953301 -0.22056222 0.104271546 
-0.024953704 -0.17055126 -0.066613294 
-0.025786055 -0.36428064 -0.040214762 
0.038615588 -0.21941817 -0.04250398 
0.20366699 -0.06591497 -0.16171682 
-0.12547532 -0.20354551 -0.3913765 
0.06409362 -0.44218522 -0.034744304 
0.056987457 -0.4155302 -0.034972813 
0.06318803 0.27392247 0.062807955 
0.069288835 0.07654374 -0.017288312 
-0.06077713 -0.236265 -0.092714556 
-0.08145266 -0.062278118 -0.1486536 
-0.02334924 0.34736705 0.21620873 
-0.090182655 -0.054051496 -0.3285318 
0.038920905 0.008721527 -0.032910436 
0.16291563 -0.40022042 -0.14647533 
0.07302294 -0.35128793 -0.035430375 
0.16959424 0.1605335 0.0114306435 
0.05635375 -0.2981211 -0.008583024 
0.050490152 -0.39104712 -0.0891898 
0.077673815 -0.2968198 -0.04031126 
-0.076714836 -0.07166255 -0.08403165 
0.2550809 0.21982527 -0.018847065 
0.060398273 -0.38788277 -0.12447049 
-0.111262925 -0.14762604 -0.34367958 
0.09026952 0.04845794 0.066745974 
0.07180708 0.056259412 -0.011905249 
0.029118843 0.15030892 0.065334685 
0.00062115723 -0.12643972 -0.22348411 
-0.0648238 -0.23976271 -0.08307311 
0.11421402 -0.47584042 -0.029669356 
-0.02736224 0.2895702 0.26102814 
0.046459083 -0.35919067 0.0049175294 
0.107097626 -0.43046388 -0.11593131 
0.03208935 0.24113391 -0.03409455 
-0.05093682 -0.24295542 -0.15147778 
-0.013514375 0.26662248 -0.13150048 
-0.036085866 0.31119335 0.2732615 
0.21318473 0.32671267 0.017779574 
0.03716849 0.28855842 0.19311555 
0.14380202 -0.3801652 -0.16364153 
-0.043637544 0.046323612 -0.11986998 
-0.1162945 -0.24693675 -0.0103732 
0.06725074 -0.20592524 -0.17997341 
0.11963124 0.16545318 -0.027434006 
-0.00589239 0.07685447 0.09279429 
0.07602334 0.104739524 0.11170243 
-0.0124468645 0.27233738 -0.12572347 
-0.019101188 -0.19196895 -0.2009893 
-0.013923412 0.31465504 0.19760253 
0.05476948 0.1539048 -0.011350145 
0.018919636 -0.46598688 0.026222546 
0.18847978 -0.011501199 -0.14950664 
0.07615062 -0.022340668 -0.10787408 
0.028627237 0.20229866 -0.15322089 
0.07275584 0.22609237 0.057563737 
-0.05394297 -0.12490224 -0.23686203 
0.11903816 0.2193874 -0.030405873 
0.042128354 -0.032303784 -0.1840331 
-0.009607588 0.28307348 -0.11315808 
-0.022785153 -0.20289293 -0.33848286 
0.14090534 0.21618177 0.07679372 
-0.0695087 -0.25967845 -0.07184285 
0.16546975 0.27972737 -0.011162778 
0.016008759 -0.34660822 0.03619941 
0.05080801 0.18312398 0.041592598 
0.043954156 0.29539195 0.009779853 
0.09220367 -0.35607013 -0.1316346 
0.04721598 0.34830144 0.040263258 
-0.038411755 -0.2714081 -0.019285923 
0.09460517 0.22507375 -0.027554706 
-0.022554353 -0.11514193 -0.07355655 
0.07590478 -0.2906799 -0.11846086 
0.15003027 0.22700186 0.072668545 
0.053206176 0.21336935 0.018865315 
-0.093786575 -0.30740288 -0.019658701 
0.062191557 0.14270477 0.09940361 
-0.044363942 -0.19011092 -0.12531362 
0.17811713 -0.15279432 -0.2094933 
0.08395886 -0.3810503 -0.12543881 
0.030228926 -0.042628754 -0.068260744 
0.196897 -0.07797173 -0.15871781 
0.29354137 0.32566464 0.02205488 
0.087834716 -0.26996064 -0.077742495 
-0.06566486 0.0018278569 -0.16483569 
0.2564403 0.20224503 -0.039143655 
-0.02991661 -0.21348962 -0.053113915 
-0.053957213 0.09205284 -0.040663444 
0.041634057 -0.31705713 0.012142784 
0.17115162 0.015266373 -0.16653426 
-0.08159323 -0.08051336 -0.27142328 
0.08921687 -0.033211447 -0.08167372 
0.14011642 0.1782507 0.087361865 
-0.003618578 0.16719647 -0.18097048 
0.19203494 0.03143838 -0.14864182 
0.04838663 -0.010105963 -0.15916975 
0.045821264 -0.19971742 0.0052740052 
0.2702633 0.22714058 -0.024952631 
0.31212243 0.15351123 -0.017329574 
0.2585128 0.2971134 0.062474817 
0.046633594 -0.19814423 0.004739845 
0.25669774 0.31442046 0.05834213 
-0.06116437 0.075431116 -0.0647958 
0.048338104 -0.02759154 -0.0749197 
0.094452485 0.090610616 0.094273195 
0.03358837 0.31943437 -0.091920316 
0.085076734 -0.3875177 -0.087677635 
0.04398725 0.19355887 -0.1441408 
0.034092225 0.30725977 0.108414695 
-0.021129385 -0.35998404 -0.048591085 
0.036319263 0.34789538 0.18153912 
-0.03639297 -0.2289147 -0.09064909 
0.02757349 0.28713974 0.20017125 
0.054327097 -0.02418206 -0.16596743 
0.07725131 -0.06453522 -0.16039525 
0.033090297 -0.07214768 -0.07877595 
-0.0388061 0.10099402 0.040972855 
0.060003508 -0.36298528 -0.15637459 
0.10680482 0.35007694 0.035418056 
0.026814444 0.25884688 -0.043610003 
-0.06966941 0.01799975 -0.13337092 
0.16764167 0.22223316 0.06700761 
-0.007163818 0.355209 0.25052327 
-0.0810565 -0.017564911 -0.14761949 
-0.098837875 -0.26509303 -0.046590485 
0.14547363 -0.056771282 -0.1520089 
0.044402108 0.21563041 -0.12475142 
0.0816323 -0.41148624 -0.028302703 
0.1674728 0.15679891 0.05849016 
0.14473157 0.0017373124 -0.13129626 
-0.020900067 -0.33915028 -0.077554844 
0.030429922 0.32028 -0.08756443 
-0.066318445 -0.35913906 0.021076605 
0.12455829 -0.42367882 -0.16618882 
-0.05789759 -0.25809285 -0.122644484 
0.07593935 -0.13148323 -0.18525906 
0.004064628 -0.34113586 -0.10497037 
0.06308648 -0.23767537 -0.17558447 
-0.05283611 0.02582826 -0.14293578 
-0.04328891 -0.09525435 -0.22936447 
-0.0094155455 -0.23551692 -0.17644735 
0.19908212 0.2615518 0.0094144605 
0.08023197 -0.24842618 -0.05843179 
0.14620507 -0.059556838 -0.16591291 
0.10305219 -0.28586504 -0.06724161 
0.066257454 -0.3876722 -0.14087756 
-0.019351652 0.3007932 -0.056207016 
-0.0035553232 0.2084958 -0.121154234 
-0.09249164 0.03955332 -0.008412549 
0.09590774 0.2870218 0.09734983 
0.21157473 0.32959843 0.10789037 
-0.0050090943 -0.24218689 -0.022162292 
0.017436985 -0.22496109 0.083243914 
0.13026002 -0.035285894 -0.08901934 
0.03411308 0.3478617 0.18722229 
0.021811074 0.3121582 0.17283745 
-0.042003952 -0.0033366992 -0.17939523 
-0.021244837 0.28899035 0.27703425 
0.022788199 0.2828172 -0.123731785 
0.035390235 0.34051222 0.05142835 
-0.060155515 -0.1502132 -0.15419374 
-0.05603605 0.40811923 0.28327098 
0.035728958 0.08410352 0.12772661 
0.07179347 0.3709328 0.112370096 
0.018042294 -0.15045696 -0.05122573 
-0.055629868 -0.10284872 -0.020982508 
0.064085305 0.35487118 0.03992709 
0.027661571 0.30158907 -0.107064396 
-0.037730414 -0.22590607 -0.12135501 
-0.042343363 -0.26920164 -0.005429566 
0.23379876 0.27666548 0.045778494 
-0.049663227 -0.09178247 -0.079539575 
-0.04293737 -0.032231387 0.01860922 
0.24590024 0.2472557 0.0022408431 
-0.031905606 -0.36049354 0.00197894 
0.027030617 -0.3507907 0.03135404 
0.10211005 0.34386027 0.018928368 
0.12035778 -0.33661395 -0.17746599 
0.05185271 -0.21335456 -0.19131745 
-0.0021719427 0.31794402 -0.013901936 
-0.061830558 -0.15169981 -0.20493919 
0.05208212 -0.42752588 -0.041194882 
0.027398242 -0.2174522 -0.19993016 
0.0604267 -0.035675757 -0.09302126 
0.105222516 0.17489612 0.106897816 
0.062248867 0.19113323 -0.0027887328 
0.18911625 0.31882584 0.082932994 
0.09084027 -0.020116769 -0.08825668 
0.17248075 0.21113247 0.060581904 
0.10409566 0.23027787 0.09028723 
-0.08368232 -0.057746567 -0.14384787 
-0.018672107 0.119865544 0.026886327 
-0.03264979 -0.035661396 -0.19818808 
0.08947498 -0.21366341 -0.08440022 
0.069413684 -0.15801986 -0.09048658 
-0.06478012 -0.36085486 0.026242632 
-0.0390975 0.0016226625 0.07128101 
-0.083525985 -0.30765215 -0.02058626 
0.07246146 -0.14876944 -0.0934704 
-0.023254378 0.23317921 -0.13744695 
0.18553086 0.30577436 0.07861521 
0.05880088 0.36219835 0.14415441 
0.0479046 0.15138368 0.08628504 
0.0928599 -0.3597957 -0.13779904 
0.025101086 0.029443039 -0.11581491 
-0.09731946 -0.27331048 -0.007989467 
-0.025194954 0.285086 0.28498012 
0.019890431 -0.2638101 0.0754153 
0.15524787 0.12567873 0.017138628 
0.25421903 0.24617648 -0.022983221 
0.08188125 -0.23370934 -0.047019754 
0.12343962 -0.42495117 -0.16615815 
-0.049662326 0.39037085 0.29372814 
0.027562283 0.27365363 -0.12481787 
0.07594414 -0.093434654 -0.09397296 
0.13233192 -0.038670715 -0.15165804 
-0.011689914 -0.13102637 -0.07089973 
0.0015951655 0.124139965 0.07993461 
-0.016834108 -0.13404976 -0.22218639 
0.10000503 -0.37798077 -0.114814155 
-0.009906663 0.16377017 -0.1901287 
0.028776027 0.3185196 -0.08764334 
-0.042315073 -0.35944256 -0.029652825 
-0.010687529 -0.0076957634 0.049019925 
-0.046513513 0.34862733 0.25878876 
-0.040382195 0.059095263 0.07469767 
-0.05828865 -0.07468489 -0.02757185 
0.01508262 0.32042637 -0.051581584 
0.1548444 0.14354932 -0.0055488097 
0.19747254 -0.16190054 -0.21955496 
0.031552415 0.15001972 5.115601e-05 
-0.0039034456 -0.17865536 -0.055679567 
0.22179362 0.31411764 0.011535537 
-0.04885798 -0.27577823 -0.12105108 
-0.031859983 0.29272017 0.25124368 
0.018055813 0.032470513 -0.12549073 
0.027313523 0.3153591 0.0644053 
0.28339216 0.30855957 0.011595372 
0.053362038 0.09575749 0.12465397 
0.16634378 0.20267977 0.06648971 
0.023595426 -0.041053507 -0.19988233 
-0.0420954 0.082685135 0.06586412 
-0.100764 -0.11002597 -0.19334875 
-0.054364566 -0.26962414 -0.041267995 
0.03763735 0.3541669 0.17530145 
0.091981925 0.29635134 0.0952767 
0.048629586 -0.41918814 -0.041952744 
0.09024397 -0.41857874 -0.022188427 
0.05659226 -0.014794675 -0.13337159 
-0.06508663 -0.10202111 -0.327382 
0.17895882 0.19746082 0.03561523 
0.2534137 0.27530903 0.048275948 
-0.029303757 -0.04090133 -0.0027465674 
-0.029906472 0.05527845 0.07592138 
0.18634047 0.2196542 0.016018035 
-0.019946393 -0.0054061655 0.053836334 
-0.014343062 0.32217997 0.26073983 
-0.060094558 -0.32970995 -0.0086196065 
0.05426759 -0.2076352 -0.19203535 
0.052024946 0.19774777 0.0215218 
-0.016039684 0.2872217 -0.02249345 
0.026616154 -0.2509433 -0.18211326 
0.056534056 0.321652 0.14737599 
0.077056594 -0.39692977 -0.14505078 
0.09776973 0.16668552 0.1161007 
-0.08846522 -0.05562968 -0.07772622 
-0.08805899 -0.05355212 -0.082708254 
0.0051211114 -0.23241977 -0.008506759 
0.18915424 0.24531056 0.051977437 
0.013293563 -0.37483293 -0.09142767 
-0.08512155 -0.11624106 -0.35076222 
-0.08925561 -0.06390669 -0.27532342 
0.09693151 0.089066595 -0.006051894 
0.028018074 -0.35656112 0.023261992 
-0.04919571 0.35373315 0.2729484 
-0.06885745 -0.10631661 -0.25774926 
-0.073521845 -0.35659024 0.03543826 
-0.048142597 -0.19706237 -0.16873743 
0.09084466 -0.19557536 -0.14422674 
-0.014074868 0.16907541 -0.18558261 
0.17110986 -0.00992598 -0.13489302 
-0.1090216 -0.19431747 -0.39423275 
-0.002327886 0.31485146 -0.009344203 
0.044352442 -0.20025843 0.0024276623 
0.041163694 -0.35249424 -0.13664581 
-0.031067152 0.031612244 0.08603364 
0.029828826 0.2997489 -0.09501263 
-0.08942959 -0.117980465 -0.3558168 
-0.0702555 0.057463005 -0.083941564 
0.056175563 -0.20098406 -0.19334252 
0.008087959 -0.3051992 0.046057485 
0.0051917713 0.047154542 0.10015863 
-0.0612041 -0.097002394 -0.009854981 
-0.074672274 0.025020905 -0.118922815 
0.0031959144 -0.03256241 -0.017099392 
0.27808556 0.22425745 0.029240243 
0.0146569535 -0.41519436 -0.043923642 
-0.07191842 -0.047489088 -0.17585555 
0.070286475 0.370105 0.06615659 
0.060974933 0.28279087 0.112449884 
-0.030635726 -0.30775493 -0.105383955 
0.018317387 -0.48105326 -0.019038701 
-0.076061435 0.023565207 -0.11834925 
-0.072806 0.358097 0.31716192 
0.10268796 0.30640307 0.090758964 
0.010590552 -0.23316911 0.030823575 
0.14658625 0.32323045 0.03181673 
-0.0024950155 -0.23173061 0.11528693 
0.33068493 0.17048585 -0.020064522 
0.10003139 0.32093886 0.09565682 
0.11592479 -0.039359268 -0.14650393 
0.08586477 -0.27653864 -0.07331224 
0.10115193 -0.4046716 -0.15105753 
-0.037471723 -0.16980441 -0.09634457 
0.04207085 -0.15692005 -0.048307113 
0.004246978 0.0752192 0.11370628 
0.19462949 0.2711483 0.061685752 
0.088989295 0.335265 0.0099406075 
0.00025742303 -0.41611046 0.02538143 
-0.11034003 -0.11008105 -0.32149255 
0.08761013 0.10532681 0.10258135 
0.3031807 0.24330048 -0.0064829276 
-0.05366969 0.38455406 0.26345757 
0.19922034 0.29276353 0.0011167201 
-0.14108495 -0.10455492 -0.22882323 
0.09315514 -0.35600865 -0.12036217 
0.09918799 -0.23947924 -0.10197403 
0.13156998 -0.39246392 -0.12425776 
0.21030112 0.31285092 0.09271287 
0.011333205 -0.18938413 -0.03264924 
-0.015123729 -0.32948056 -0.09805497 
0.039834794 0.2894163 0.031277623 
0.008007373 0.17365366 -0.16981715 
0.008581905 -0.036524136 -0.20324536 
-0.03383606 -0.39116442 -0.0052146832 
-0.04515184 -0.21920848 -0.33279496 
0.015058117 -0.4519896 -0.04970192 
0.15790969 0.3176589 0.028955549 
0.011152085 -0.3994134 -0.049644202 
-0.0003166957 -0.41921324 0.016690953 
-0.08040426 -0.24934644 -0.38912693 
0.06367416 0.3413764 0.13665831 
0.026390567 -0.4832234 -0.010551911 
-0.0791961 -0.10650569 -0.2796819 
0.04021826 0.023602284 -0.043002315 
-0.011336032 -0.37858835 0.004569573 
0.17556664 0.22824083 0.060790006 
0.19536847 0.27786538 -0.00059822807 
-0.039721537 -0.15597704 -0.10806943 
0.08259131 0.28703618 0.10165516 
0.17311598 -0.1173947 -0.2169361 
0.20798025 -0.08856072 -0.19259615 
0.04609595 -0.06992246 -0.20338951 
0.058622457 -0.16834763 -0.20155562 
-0.08562671 -0.22462316 -0.36917603 
0.093592264 -0.20465912 -0.11296846 
0.3169053 0.20200704 0.018721173 
0.083719686 -0.38437167 -0.13411415 
0.05176398 0.28377065 0.04611789 
-0.007102912 -0.37402344 -0.053108264 
0.08921416 -0.303091 -0.085767604 
-0.03616707 -0.22790465 -0.08952289 
0.08442123 0.05623346 0.08442433 
0.025195587 0.3726172 0.1556601 
-0.063287556 -0.21587302 -0.37565836 
0.005396035 -0.27118817 0.08735961 
0.09674767 -0.19830133 -0.11877995 
0.039580002 0.3471963 0.17497984 
-0.03506896 -0.20237449 -0.09187782 
-0.08439214 0.054862432 -0.049753 
0.26039997 0.21197167 -0.028909814 
0.28463694 0.28872997 0.03887135 
-0.07478958 -0.04635597 -0.31869203 
-0.10177391 -0.1252388 -0.35500154 
0.036568798 0.28301695 -0.049086746 
-0.06564951 0.08541509 -0.037106477 
-0.12557724 -0.061686527 -0.24985844 
0.17431726 -0.12332764 -0.2217129 
-0.014385527 0.31927022 0.19649857 
0.07334927 0.20100476 0.0675675 
0.09191923 -0.23695354 -0.08222012 
-0.16118875 -0.26703787 0.033249784 
0.08789415 -0.29652193 -0.081599504 
0.28407544 0.19671372 0.0119039705 
-0.027119018 0.112408035 0.021408845 
0.14580214 -0.39882064 -0.13409495 
-0.06344971 -0.15396112 -0.34707686 
-0.08895614 -0.22565772 -0.37155244 
0.018261932 0.32725585 -0.10817012 
-0.03635419 -0.2557405 0.0085574165 
-0.07725191 -0.061147414 -0.16472697 
0.090436615 -0.3681931 -0.08264939 
-0.07834399 -0.14176588 -0.35841462 
0.12850808 0.1354557 -0.018988421 
0.036868658 0.10964694 -0.02650951 
0.16855258 -0.0075784693 -0.13494435 
0.27173206 -0.1331844 -0.18767986 
0.069039844 0.35665947 0.12874436 
0.16412139 -0.07046157 -0.20209803 
0.05281546 0.27839977 0.03779124 
0.038850743 0.3449552 0.17696472 
0.016662832 -0.04662815 -0.05578167 
0.22218329 -0.13610505 -0.18173642 
-0.04800304 0.0597771 -0.095154986 
-0.008126364 -0.008297565 -0.18564413 
-0.021790642 0.03870676 0.09456386 
-0.013726542 0.25209096 -0.14638725 
0.24430017 0.33191732 0.047598027 
-0.069197915 -0.030100895 0.012708433 
0.008022846 -0.021601299 0.008859301 
0.012619654 0.36709875 0.14776249 
0.06601431 -0.34224463 -0.10473059 
0.10915927 0.060836665 0.05994341 
0.061023902 -0.30750096 -0.013767799 
-0.012742146 -0.08816603 -0.06703301 
0.047741495 -0.45162496 -0.06549883 
-0.055838425 -0.24052702 -0.36572093 
-0.075803265 0.07411282 0.0016312492 
0.2694763 0.2114424 0.015831783 
0.036009148 0.0075944494 -0.042608436 
-0.022156982 -0.09123482 -0.22665152 
-0.08678906 -0.13234247 -0.35959315 
-0.0688591 -0.08211002 -0.26178956 
0.062412374 -0.29779214 -0.014760183 
0.08194312 0.23964816 -0.034876253 
0.3249365 0.20843747 0.011470603 
0.06765973 0.25824675 0.051135905 
0.06962622 -0.49766406 -0.073406 
0.055312783 -0.22040495 -0.18573394 
0.24182385 -0.14221285 -0.19867627 
0.037157517 0.17518707 -0.15545745 
0.050156187 -0.34392226 -0.15174043 
-0.03628152 -0.25590312 0.00774276 
-0.046463445 0.33085495 0.30814767 
0.08808794 0.10305413 0.10183972 
-0.07438978 -0.07148758 -0.24616648 
-0.057281904 -0.32168752 -0.04294882 
0.08298107 0.32780394 0.10766399 
0.074805334 0.15259491 0.113015965 
0.21234144 -0.080946654 -0.18376707 
0.12679304 0.17376882 0.09239779 
0.1981223 -0.027931314 -0.17539509 
0.06980426 0.31472275 0.0010651437 
0.16611645 -0.037151266 -0.18455319 
0.27533692 0.22128917 -0.025156697 
0.06274581 0.10039607 -0.022486383 
0.0466105 0.31048357 0.017972302 
0.15905474 0.17398232 0.0760664 
0.008336841 -0.20405255 -0.04424984 
0.3010288 0.24429126 0.021950845 
0.11618989 -0.0806234 -0.11766521 
-0.00279954 -0.33275613 -0.10694566 
0.16685288 -0.13038939 -0.2065547 
0.07603941 -0.22386444 -0.16914144 
0.074558444 0.020457897 0.035089403 
-0.009336162 0.21118408 -0.1721212 
-0.065291815 0.05228725 -0.0928566 
-0.037135806 -0.17932473 -0.10681627 
0.017997263 -0.16955695 -0.056373518 
0.0062262192 0.14484286 0.039025333 
0.18389153 0.044273347 -0.14488664 
0.08906231 -0.100819916 -0.15267287 
0.01484098 0.121434435 0.093434565 
-0.100894555 -0.21241112 -0.386054 
-0.0037615243 0.12396167 0.074115075 
0.036920123 -0.13204585 -0.07976047 
0.057461306 -0.3183011 -0.0113435 
-0.035409868 0.3561625 0.2807243 
-0.07864938 0.0038387412 0.011320032 
0.010611113 0.22277534 -0.10353371 
0.013072958 -0.47916085 -0.0039826743 
0.12805234 0.3255675 0.07188925 
0.10621094 0.14372462 -0.02483769 
0.04391755 0.120021336 -0.023568096 
0.021486951 -0.2223105 0.06719802 
0.13856146 -0.36575958 -0.1486001 
0.08392022 -0.08579482 -0.09228819 
0.101874486 0.30055773 0.09183434 
0.0848524 -0.49501228 -0.024858188 
0.21530402 -0.09690945 -0.1903967 
0.08927682 -0.46920127 -0.03880472 
-0.07766247 0.06505833 -0.051798113 
0.07542337 -0.13977814 -0.097200185 
0.031560972 0.26603758 -0.09121589 
0.038456284 0.0037529862 0.048887182 
0.18567462 0.2785025 -0.0031140207 
0.030873 -0.016329952 -0.18132502 
-0.08403746 -0.076684356 -0.30875516 
0.2642212 0.18283401 -0.021721937 
-0.049907908 -0.041413974 -0.19634652 
0.012707754 -0.2153486 0.07451918 
0.02837807 -0.022692198 -0.043158103 
0.07204398 -0.05355459 -0.076121 
-0.09439158 -0.25773233 -0.013054119 
0.012886674 -0.24915369 -0.1804093 
0.09798109 -0.24327219 -0.106965005 
0.056950353 -0.49845478 -0.05696314 
0.13822882 0.24419649 -0.023903497 
0.03159089 -0.17066047 -0.031225236 
0.057604574 -0.41679245 -0.0055244244 
0.08029344 -0.08509971 -0.16333932 
-0.018884575 -0.034898326 0.0021443532 
0.043471497 0.2035633 -0.11823645 
0.05840367 0.18687119 -0.13852057 
-0.13931268 -0.2663329 0.0222849 
-0.10427557 -0.062152814 -0.2901747 
0.020863226 0.16656403 -0.15087861 
0.23174194 0.32855925 0.017324107 
0.015729224 0.046326067 -0.09519056 
0.031231415 0.10745748 -0.027669115 
0.16871788 -0.08327835 -0.20431365 
-0.06551944 -0.09756857 -0.12203989 
0.067833096 0.26340055 0.08794882 
0.19921301 -0.14573607 -0.19269186 
0.10888805 0.1632454 -0.026501026 
-0.051167704 0.274167 0.29544738 
-0.12671949 -0.055884216 -0.2611669 
0.011070933 0.37715724 0.2082554 
-0.032638364 0.109840944 0.035959356 
-0.035171162 0.3092265 0.24946575 
-0.027078338 0.20932248 -0.1783408 
-0.028150065 -0.26286048 0.008473259 
-0.021981996 0.2137488 -0.12897311 
0.12669028 0.12113416 -0.014284353 
-0.06985782 -0.039187193 -0.00039386904 
-0.047731366 -0.14200912 -0.09513714 
0.24581765 -0.113208205 -0.19124646 
-0.08963766 -0.035204824 -0.31210348 
0.06231449 0.14291288 0.09929936 
-0.015495909 -0.33801687 0.026160005 
5.7006277e-05 0.38380736 0.21148986 
0.058538135 -0.4617239 -0.051217284 
-0.010164387 -0.14295742 -0.22739618 
0.13446897 -0.36090344 -0.18194559 
-0.021780008 -0.27252883 -0.14544334 
0.027367512 0.3431863 0.20535593 
-0.12382557 -0.19412525 -0.3957415 
0.10543694 -0.39640343 -0.1825299 
0.039842013 0.084128134 0.14123665 
-0.08372081 -0.24291667 -0.39146933 
0.021333033 -0.32169077 0.03669128 
0.06898297 0.15634902 -0.018283341 
0.27864572 0.18289708 -0.04368953 
0.1309527 0.30623326 -0.010708381 
0.16621222 0.16876948 0.06175434 
-0.14104316 -0.0915585 -0.21423896 
-0.06999094 -0.15200268 -0.18353038 
0.20915198 -0.049061175 -0.16793618 
0.06405837 -0.4766301 0.007940243 
0.022715803 0.26472574 -0.046272494 
0.16541608 -0.036373697 -0.1052729 
0.08234598 0.0914201 -0.013759305 
0.043761365 0.25969517 -0.04914895 
-0.0948845 -0.006413772 -0.1053681 
-0.07918105 -0.040807128 -0.16062285 
0.08591437 -0.39412904 -0.13996573 
0.1564399 -0.09071183 -0.17073078 
-0.01663509 0.3867604 0.25443947 
0.121451795 -0.033829767 -0.070405066 
0.094070666 -0.22376096 -0.11259061 
0.16283083 -0.0549988 -0.13364652 
0.010644887 -0.03107826 -0.1997254 
-0.004097552 -0.023912335 0.016073912 
0.03027605 -0.2707931 0.03725629 
0.18522905 -0.10922911 -0.21021874 
0.06923586 -0.1805343 -0.18273452 
0.25024855 0.16800049 -0.047403667 
0.03189234 0.090221725 0.118410476 
-0.11523866 -0.30332562 -0.002486909 
-0.005595751 -0.2878287 0.053586196 
-0.024485659 -0.17722827 -0.08164778 
0.13290793 -0.06272565 -0.11060946 
0.033972938 -0.31529456 0.023555115 
0.011912476 -0.4708672 0.008375156 
0.054989357 0.2427828 -0.04071167 
-0.022277584 -0.1628615 -0.21705025 
-0.10407842 -0.14589126 -0.32083827 
0.11292482 0.3474254 0.058870777 
0.049420197 0.20280735 -0.13478851 
-0.0395996 -0.3197517 0.018239822 
0.21931674 0.31243423 0.07888268 
-0.098895304 -0.12778167 -0.29919204 
0.036490697 0.016100986 -0.094610676 
-0.06206325 -0.3277605 -0.018806854 
-0.0738163 0.39885786 0.28660572 
0.21844868 0.26983824 0.027609637 
-0.004795107 -0.21455528 -0.19266163 
-0.037441585 -0.17805846 -0.107346795 
-0.056555983 -0.103252076 -0.007274857 
-0.08247088 0.06392489 -0.012977383 
0.07785497 -0.2604054 -0.02931194 
0.030258866 -0.05740491 -0.073728584 
-0.016145397 0.26187754 -0.12268295 
-0.03588216 -0.20600227 -0.3202747 
-0.008847119 0.3028721 -0.07902353 
0.36035794 0.1702414 -0.0016746117 
0.15671018 -0.38399458 -0.13556162 
-0.02290855 0.36209285 0.21911444 
0.06010743 0.005193594 0.008718386 
-0.06911727 0.056515913 -0.084573045 
0.19852369 0.33268863 0.033525586 
-0.100843586 -0.16141243 -0.37329698 
0.30138358 0.19422281 0.012284798 
0.016114617 0.14457583 0.02413037 
0.058050364 0.12823315 0.113795005 
0.038582444 -0.43776423 0.046159077 
0.045735065 -0.34037685 -0.13892524 
0.11354577 -0.057480577 -0.07823888 
0.045269035 -0.4048654 0.03013427 
0.046997625 -0.0530162 -0.08346419 
-0.07307498 0.35243985 0.31131986 
0.05556202 -0.04914351 -0.1890251 
0.24517028 0.30476335 0.071631745 
-0.08439605 -0.2564348 -0.021366643 
-0.030484786 0.06481324 0.073845156 
-0.03650732 0.20390889 -0.18699549 
-0.07431248 0.072654635 -0.044198826 
0.24779958 0.19245127 -0.03370321 
0.14154863 -0.39914376 -0.13518906 
0.013048419 0.08695908 0.104859695 
0.08411864 -0.35122168 -0.03724067 
0.025600744 -0.4404266 -0.029404828 
-9.813495e-05 -0.041037556 -0.032372918 
-0.012151637 -0.047719467 -0.025404893 
-0.042068314 -0.28890252 -0.062498048 
0.06851103 0.17385358 -0.009508866 
0.049686775 0.17871478 0.052422956 
0.031288795 -0.15772086 -0.21747676 
0.19641547 0.3141572 0.08898931 
-0.097271204 -0.12383079 -0.25421607 
-0.0722695 -0.13324918 -0.1700848 
0.052389096 0.21114041 0.010671 
0.048959263 -0.34192705 -0.003292968 
0.048362684 0.18588859 0.0128566865 
0.08230349 0.025986418 0.04105723 
-0.0824098 -0.04649051 -0.32165754 
-0.079426005 -0.3550743 0.037667435 
0.111566946 -0.4741044 -0.030674178 
-0.040240817 -0.15535598 -0.21013072 
-0.04157453 -0.046834912 0.004138054 
0.013320123 0.3035843 0.2001202 
0.087470375 -0.2604285 -0.11119694 
0.006467494 0.13616845 0.01862326 
-0.030011436 -0.3516419 0.010526706 
-0.045595724 -0.11824227 -0.22878829 
-0.06029748 -0.16146646 -0.31320342 
-0.049450647 -0.34211203 -0.028584968 
0.030458517 -0.23630652 -0.03191869 
-0.043977324 -0.1926033 -0.32014295 
-0.10477571 -0.069536984 -0.3168595 
0.04299627 -0.008381108 -0.01836242 
-0.05746814 0.035436433 -0.12694292 
-0.04729916 -0.19673336 -0.16145912 
-0.009967139 -0.27105254 0.08354255 
0.026048306 -0.018480055 0.0009915836 
0.07207148 0.026233157 0.049512196 
0.09051303 -0.26772255 -0.099394925 
0.04708139 -0.2111102 -0.04858227 
-0.06512035 -0.06454751 -0.03385662 
0.00032021033 -0.42017853 0.029848834 
-0.08193005 -0.23823334 -0.39281633 
0.077858806 0.37034562 0.07800248 
0.037703436 0.26832953 -0.100296244 
0.22732201 0.28156558 0.025990948 
0.030004868 -0.242294 0.017407551 
0.057482157 0.28115952 0.060394794 
0.27861747 0.16831812 -0.03126131 
0.085467085 -0.42502436 -0.025976766 
0.10990104 0.088009864 0.08474406 
-0.021070601 0.38363108 0.22611973 
0.25027826 0.29229793 0.0027359999 
-0.06545739 -0.1038268 -0.13352235 
0.0067520314 0.3021724 0.22659212 
0.034228086 -0.18587998 -0.025794009 
0.13533133 0.004056731 -0.1142219 
0.048364237 -0.13390684 -0.081468634 
-0.07596277 -0.12247466 -0.26580405 
0.047661986 0.26835662 0.026894106 
0.0009628632 0.17457774 -0.17032835 
-0.08231857 -0.07726939 -0.30631065 
0.03402839 -0.23395994 0.01917056 
-0.04607496 0.3938764 0.26616853 
0.28807512 0.22014011 0.029603895 
0.083122574 -0.079393364 -0.089506075 
0.14795493 0.32366297 0.025222652 
0.06510889 0.22012925 0.045362078 
-0.03763432 -0.15869796 -0.07894462 
0.08995006 -0.1395426 -0.12832683 
0.09206962 0.36431664 0.06437138 
0.033991404 0.29920927 -0.08772007 
0.037104648 -0.26148844 0.027764184 
-0.03594852 0.22070965 -0.17679313 
0.1749366 0.31016913 0.054024614 
-0.052845225 0.07673108 -0.064897075 
-0.03716101 -0.10602096 -0.09011596 
0.17968929 0.31782356 0.043874837 
-0.08776467 -0.06285866 -0.30589712 
0.0457146 -0.253586 0.0044953437 
-0.07162047 0.40721494 0.2828256 
-0.10616348 -0.24714209 -0.020776838 
0.0022703884 0.044257037 -0.12383018 
-0.07888605 -0.06780504 -0.16602634 
-0.14445513 -0.09625845 -0.20760103 
-0.075474985 -0.26144385 -0.023295904 
-0.027777331 -0.3254989 -0.08144958 
0.27804115 0.16922863 -0.030813769 
0.24902137 0.17879286 -0.04751419 
0.0865993 -0.20572935 -0.04981683 
0.03451095 -0.4592017 0.029422084 
0.05523382 -0.3774157 -0.06456715 
-0.033311553 -0.19154678 -0.09859188 
-0.06438953 0.43145487 0.29898858 
-0.05137931 -0.27919772 -0.11216578 
0.27140364 0.17048393 -0.036631845 
0.13930963 -0.33776462 -0.19419414 
0.030301657 -0.2191756 0.014288476 
0.30157602 0.28528 0.016121732 
0.1602932 0.26585534 0.0682583 
-0.015203116 -0.1568265 -0.21940668 
0.1029183 -0.3454161 -0.11280595 
0.054518133 0.008314582 0.03587887 
-0.034989458 -0.18074815 -0.19634949 
0.2624887 0.19492164 -0.04581192 
0.27304184 0.1811116 -0.013235435 
0.053746086 -0.49177885 -0.004586645 
-0.038441446 -0.27103406 0.011850113 
-0.045610256 0.028608833 0.06575134 
0.18458474 -0.049134325 -0.14458221 
0.054874122 -0.49341044 -0.007183107 
0.065374255 -0.3667695 -0.061363753 
0.014926792 0.24039517 -0.09388733 
0.062460016 -0.19507046 -0.06735728 
-0.023503428 -0.24229518 -0.344652 
-0.08160788 -0.07368913 -0.11781555 
-0.03911344 -0.26807582 0.01485572 
0.05863557 -0.4740543 0.013070782 
0.037962023 -0.19542131 0.010760881 
-0.034323514 0.05578821 -0.105762616 
0.17608877 0.27302992 -0.0069922693 
0.30145472 0.19828463 0.021064963 
0.049269255 0.23147997 -0.02189412 
0.004358441 -0.3919468 -0.053142227 
0.08525749 -0.10895205 -0.11408051 
0.17541488 0.19979435 0.054224648 
0.08957192 0.13216463 0.11952353 
0.09426135 -0.40401822 -0.16000205 
-0.007961682 0.045853842 -0.12678307 
0.079069205 -0.48871878 -0.012293344 
0.003988941 -0.027366402 -0.1986426 
0.0668727 -0.18164165 -0.077250384 
0.030418385 0.30426776 0.18830052 
0.049381725 -0.3963915 -0.08186868 
-0.0007741496 -0.38477817 -0.071859114 
-0.08321214 -0.29076886 -0.0014187132 
-0.05074651 0.27396783 0.3013168 
-0.042405404 -0.06700774 -0.021695351 
0.0057938257 -0.08374899 -0.07139523 
-0.086143725 0.060705546 -0.034337007 
0.14851557 -0.4078083 -0.14970906 
0.078887224 -0.259626 -0.13915631 
0.117047936 0.32858732 0.007952091 
0.0051337155 0.3612852 0.16617233 
0.13695733 -0.049238026 -0.13537627 
0.3052337 0.3082814 0.032082606 
0.13392138 0.0894324 0.024465928 
-0.044162266 0.06589742 0.06893407 
-0.03038103 -0.24328217 0.11973232 
-0.00045753995 -0.44848973 0.0033319516 
0.1335951 -0.035281453 -0.15509449 
-0.075578354 -0.30815902 -0.019483143 
0.23387308 0.32713863 0.068360776 
0.24365558 -0.16274557 -0.20717442 
0.13943122 -0.36426106 -0.16858268 
0.0015397966 0.3132426 0.2395376 
0.15586545 -0.00776781 -0.14427817 
-0.008378408 0.020696541 -0.16178995 
0.04954678 -0.29032677 -0.14267632 
0.058273364 0.3092317 0.009532187 
-0.033725746 -0.0006863096 0.065087266 
-0.012973705 -0.100748815 -0.22387841 
-0.024524266 -0.35844332 0.012045415 
-0.15910512 -0.09275067 -0.21491352 
0.11012535 0.11315207 0.09465387 
0.055530746 0.30347618 0.0066687213 
-0.097474515 -0.01677016 -0.08388986 
0.09371593 0.039561827 0.03050735 
-0.09212286 -0.2012617 -0.38941184 
0.08767228 -0.40111777 -0.16142261 
-0.07956661 -0.14265749 -0.19699672 
0.08503792 0.09071628 0.0995785 
-0.0045335116 0.27549747 -0.032768805 
0.26832762 0.16369173 -0.044938803 
0.021294888 -0.08635304 -0.21467918 
-0.008991437 -0.28427666 0.04498074 
-0.07655671 -0.061006434 -0.16496181 
0.15074773 0.27353314 0.062163923 
0.19129671 0.24534816 0.025677793 
0.031797256 -0.28486553 0.03156828 
0.06564889 -0.061011743 -0.1821874 
0.11402852 0.27230975 -0.025491554 
0.03683254 -0.17012939 -0.061241474 
-0.029138358 -0.24377501 0.11863447 
-0.028791716 -0.23554538 -0.17193176 
0.13576865 -0.0037563683 -0.09796036 
0.052135576 -0.23068535 -0.02442901 
0.32674578 0.20075575 0.014537435 
0.046189412 0.29252425 0.018889626 
-0.12187159 -0.09200168 -0.23972006 
-0.077158354 -0.06957445 -0.3221002 
0.16533162 0.14978611 0.015244095 
-0.012923287 -0.2934441 0.033667468 
-0.10302011 -0.076012395 -0.3262546 
-0.0136371115 0.057114888 0.096974075 
0.010163316 -0.23858438 0.08321778 
0.24214238 -0.14244343 -0.20664941 
0.10049151 -0.010070986 -0.12767148 
0.11468299 0.07653491 0.069772616 
0.18339881 0.25789323 0.057512973 
0.056173783 0.37636 0.096240126 
-0.09199635 0.044721663 -0.0044133393 
-0.0146690365 0.31312767 -0.05078449 
-0.005171355 -0.42493865 0.02579862 
0.05562993 -0.39168516 -0.09237891 
0.26327905 0.16566013 -0.054298624 
0.017605461 0.31874013 -0.06436932 
0.0978754 0.22265984 0.09848325 
0.1856781 -0.045491036 -0.19103713 
0.0020690702 0.32072988 -0.02218919 
0.09360649 0.13728605 -0.025295146 
-0.00111276 0.2750386 -0.04159342 
-0.08521977 -0.0137334475 -0.015242405 
0.26650065 -0.13662824 -0.19270714 
-0.04782728 0.19419743 -0.19515298 
0.35089555 0.19562477 -0.0060684267 
0.089191206 0.35499936 0.03055936 
-0.015081442 -0.30604377 0.022854187 
0.030548679 0.02389447 0.074584074 
0.13113794 0.24671629 0.07694737 
-0.043175872 -0.061634082 -0.0155455405 
0.044341467 -0.026680559 -0.069539666 
0.03871124 0.009019978 -0.034357205 
0.059320595 -0.49866536 -0.0585423 
0.08101601 -0.34577718 -0.04962856 
0.0088427095 -0.32818493 -0.13154843 
0.09182583 -0.44950658 -0.03283083 
-0.034364562 -0.22591756 -0.34776318 
0.04679185 -0.49206465 -0.036388874 
0.020353004 0.1527251 -0.17896697 
0.05081333 0.34666422 0.16341242 
0.012477162 -0.18355694 -0.037297506 
0.038848963 -0.30387703 -0.13585044 
0.053796392 -0.022607155 -0.16270472 
0.13851383 -0.34722456 -0.18600334 
-0.098258235 -0.12818623 -0.24043164 
-0.030455586 0.01245066 -0.17046109 
0.24871005 0.17298533 -0.036968 
0.038885992 0.00060875394 -0.03413892 
-0.037986852 -0.34135827 -0.047015384 
-0.02509792 -0.35921654 -0.034367595 
-0.07126677 -0.085474074 -0.30796835 
0.00041430118 -0.15063313 -0.22299698 
0.15279076 0.12270561 0.031906094 
0.0049178475 0.3498286 0.13309035 
0.028163122 -0.20722058 -0.20673054 
-0.038341407 -0.21325485 -0.1665575 
0.010077407 -0.14525485 -0.22465757 
0.12199649 -0.035767958 -0.1447224 
-0.035031088 0.07983005 -0.06797514 
0.03804617 0.2637065 -0.10540918 
-0.10255431 -0.1838195 -0.34549353 
0.037654582 -0.014840861 -0.17470036 
-0.083927296 -0.07974428 -0.33336774 
0.14495385 0.2648094 -0.019856308 
0.061489876 0.16992873 -0.14118662 
0.011313829 -0.22338437 0.04324186 
0.08526693 -0.21994759 -0.044492044 
0.05828927 -0.18627313 -0.06702595 
-0.122180894 -0.22218913 -0.39745972 
-0.0366334 -0.25834 0.0152861 
-0.07460996 -0.04551917 -0.1715046 
-0.007807763 -0.0931095 -0.071187265 
-0.12760794 -0.11610589 -0.22502512 
0.059712593 -0.20727661 -0.18746492 
-0.112891026 -0.06500076 -0.2358455 
0.011926181 0.3299904 0.22883302 
0.07957595 0.3416628 0.12289517 
0.19340757 -0.06284071 -0.15476133 
-0.006253837 -0.009985507 0.04465588 
-0.06800963 -0.22230214 -0.34727743 
0.066315085 0.09794269 -0.021057855 
0.023890067 -0.028590089 -0.047909565 
-0.02678266 -0.12902126 -0.07049772 
0.023841908 -0.4333578 -0.010810077 
0.040454928 -0.45952812 0.031901285 
0.041081633 0.072934955 0.10800276 
-0.026409067 -0.1461013 -0.075024135 
0.23459148 -0.13963567 -0.19018623 
0.06132981 0.1682979 0.077709004 
0.030983508 0.31282857 -0.032377474 
-0.01801409 0.37512374 0.26468098 
0.169081 0.26905745 -0.009264501 
-0.096279725 -0.01748773 -0.06450932 
0.13627489 0.13220647 0.085092574 
0.0014276828 0.06717442 -0.07125073 
0.17187454 0.2659555 0.063856676 
0.034332614 0.36659557 0.16874945 
0.088206336 -0.26771784 -0.07849433 
0.2812248 0.19163531 -0.03802847 
0.05452373 0.030159712 -0.022832071 
-0.027609868 -0.22660114 -0.3488157 
0.009877653 0.36706853 0.16859701 
0.040051624 -0.00021209553 0.04190917 
0.035745934 0.31624082 0.047536083 
0.07885802 -0.25721386 -0.03353916 
0.016258065 0.25235355 -0.010848872 
0.028659739 0.094218634 0.13432443 
-0.02045013 -0.26933184 -0.15198943 
0.026397616 -0.395558 0.0037867709 
0.038200736 -0.119343586 -0.060228314 
0.022389086 -0.3674676 0.055349562 
0.03794692 0.28997546 0.1853613 
0.09318487 -0.4746564 -0.039546236 
0.085407495 -0.23670502 -0.14405502 
0.32442665 0.16166972 -0.015662398 
0.042458758 -0.4943563 -0.058375146 
-0.0741782 -0.10503628 -0.16346268 
0.07094453 0.27484372 0.10917056 
0.078451365 -0.0192021 -0.12119397 
0.030492833 -0.14052828 -0.047838386 
0.0009768654 -0.36908472 -0.07205925 
-0.011933533 -0.06169009 -0.05354869 
0.021499878 0.15741554 0.028166128 
0.01454263 -0.45201996 -0.05115834 
0.08319101 0.35167986 0.1209023 
-0.0048205974 0.2722261 -0.016090643 
-0.0129160285 0.2923914 0.23032154 
0.056062758 -0.023086175 -0.16123624 
0.09495421 -0.38621703 -0.12627304 
0.011083795 -0.11068173 -0.22596413 
-0.122641504 -0.21249467 -0.4046825 
0.12508442 -0.30907306 -0.1193557 
0.059945285 -0.3253399 -0.015152243 
0.17220746 0.19039543 0.059528798 
0.19552408 0.33031335 0.047493044 
-0.122830205 -0.26849875 0.0032648195 
0.30532894 0.2641373 0.009788016 
0.18521026 -0.16097389 -0.21716495 
