-0.5 -0.027454203 0.06802129 
0.34375 0.00015696995 0.13257213 
0.37574142 0.023816196 0.1875 
0.3871268 -0.035995904 -0.092271134 
-0.5 -0.010741693 -0.0106760925 
-0.4906024 0.016195012 0.15770817 
0.3493477 -0.125 0.07807978 
0.47006938 -0.090733364 0.17827526 
0.116560996 0.125 0.083275944 
-0.3563648 -0.0858003 0.06527119 
-0.4367554 -0.004639435 0.1875 
0.40576705 0.125 -0.026594818 
0.5 0.07059278 -0.01799432 
0.4606579 -0.03237275 0.18292052 
-0.40237448 0.125 0.03918419 
-0.031253405 -0.125 0.08215551 
-0.16263048 0.11489044 0.0625 
0.13593003 -0.09253722 0.06250686 
0.4395053 0.046592567 -0.064749025 
0.375 -0.079963304 -0.12096282 
0.375 -0.056897163 -0.050287973 
0.053033743 -0.08391299 0.1875 
-0.2898653 -0.125 0.09033088 
0.42858455 -0.04326323 -0.044831134 
0.19755127 0.125 0.08108046 
0.3085196 -0.045953207 0.16343236 
0.2539736 0.120112576 0.1323883 
0.047628585 0.125 0.10027781 
-0.5 0.07969399 0.0024114188 
0.4997963 0.09248943 -0.07754448 
0.19520186 0.06597829 0.15625 
0.23440814 0.09375 0.12344987 
-0.46088266 -0.11330867 0.07145876 
-0.5 0.036875304 0.06036916 
-0.15249029 -0.033928253 0.16357943 
0.1331612 0.122237004 0.12526347 
-0.375 -0.12018387 0.022407394 
-0.4676688 -0.1099156 0.051018942 
0.26567796 0.1091439 0.0625 
-0.5 -0.06841359 0.036192767 
-0.21473962 -0.125 0.09428838 
-0.22414187 0.12499482 0.10295792 
0.375 -0.055166975 0.021857465 
-0.37019652 0.017316636 0.1875 
0.26087037 0.125 0.092828 
-0.016125236 0.043954562 0.106555425 
-0.21146256 -0.125 0.0854523 
-0.28338942 -0.07746426 0.1875 
0.13656932 0.046473168 0.1875 
-0.14633924 0.10114186 0.0625 
0.49457934 -0.08867327 -0.10031194 
-0.21517104 -0.12081719 0.1300252 
-0.15020925 -0.055320777 0.18054672 
0.40883812 0.005202835 0.1875 
-0.14997894 0.1142162 0.14656761 
0.02353269 0.102443315 0.17011337 
-0.49187687 0.07791488 -0.12154523 
0.13691494 -0.012319253 0.15625 
-0.43975922 -0.1209267 0.12844764 
-0.46319738 0.084561035 0.18189965 
0.42630568 -0.124354355 -0.00061288074 
-0.37540522 0.04171725 -0.041324243 
-0.030544784 0.125 0.07918697 
0.17003766 -0.09375 0.14191332 
0.5 0.07709799 0.11532302 
-0.14462349 0.09375 0.08706308 
0.5 0.050192736 0.048075378 
-0.1941826 0.09375 0.06704403 
-0.11810511 -0.06382299 0.1875 
-0.23681226 -0.10485544 0.16528912 
-0.016953528 0.118755944 0.13628912 
-0.06424146 0.10766871 0.15966257 
-0.20543529 0.08811955 0.1875 
0.046358824 -0.006542767 0.10555219 
0.375 -0.11175525 -0.017315311 
-0.28495246 0.118606426 0.13663723 
0.45042908 0.11016602 0.15151069 
-0.48679245 0.0332523 -0.15710519 
0.375 0.116425164 -0.05486092 
-0.4304907 0.12086294 -0.08840925 
0.22199185 -0.08728751 0.15625 
-0.2853704 -0.125 0.07450918 
0.375 0.07769286 -0.1059017 
-0.12043156 -0.083418734 0.093162574 
-0.08155581 0.122056104 0.12587017 
0.31097308 0.040686447 0.17232446 
-0.36229137 -0.09533491 0.06185897 
-0.4668386 0.09676601 -0.11534504 
0.475859 0.058398522 -0.15067953 
0.046768777 0.0017068055 0.13698713 
0.48520336 -0.08881768 -0.11078028 
-0.4412325 0.006296116 -0.016215662 
0.21257925 -0.09375 0.09724155 
0.24741066 -0.124486074 0.11172619 
0.40067124 0.09384318 0.18731365 
-0.23821855 -0.11780896 0.13849388 
-0.44815174 -0.03132867 -0.02770749 
0.43438008 0.030756116 0.1875 
0.44253525 -0.09905778 -0.13165228 
0.40523517 0.125 0.02068036 
0.33584943 0.082884066 0.15474428 
0.23817387 -0.0625 0.1737713 
0.053761784 -0.041811027 0.1875 
-0.40909204 -0.125 -0.043313283 
0.042969696 0.10894489 0.15711023 
-0.014615037 0.10578575 0.1634285 
0.21869111 0.125 0.08695137 
0.10626975 0.124396704 0.11326646 
-0.3362242 -0.11003444 0.0625 
-0.29168722 0.125 0.09717589 
0.05248699 0.09486854 0.18526292 
0.5 0.077906445 0.056928355 
0.3199226 -0.09026826 0.1875 
-0.13711898 -0.091231644 0.15625 
0.120421454 -0.07176771 0.1875 
0.375 0.0008422898 -0.15200143 
0.12367095 0.017901622 0.11862241 
0.03418006 -0.03168544 0.12345867 
-0.38008544 -0.10106613 -0.13598849 
-0.3875038 -0.0066486974 -0.016196951 
-0.422902 -0.124406695 -0.0701659 
-0.4661445 0.09711121 0.17283626 
-0.26051977 0.09375 0.13281558 
0.09264772 -0.104872935 0.16525415 
0.27149186 -0.06904696 0.1875 
-0.3213873 -0.06989963 0.1875 
-0.008131841 -0.04589478 0.12633565 
0.25825953 -0.09375 0.09709161 
0.4926124 0.04322477 0.15436396 
0.38205966 -0.023685116 -0.022148589 
-0.40339315 -0.121522844 -0.091381244 
-0.375 -0.027923934 0.0499853 
-0.18415754 -0.068630874 0.1875 
0.34342182 0.062336408 0.1875 
0.36895877 0.08621955 0.065117024 
-0.31241974 0.03211814 0.16187006 
-0.5 0.055460062 0.024770752 
0.006742696 0.11755344 0.13908876 
0.375 0.044619113 -0.010345214 
-0.5 0.03845924 -0.00513756 
0.375 0.08496781 -0.15050367 
0.10519503 0.0043067806 0.1875 
0.1219326 -0.011174085 0.1875 
0.24476539 0.0625 0.16072689 
0.4050027 -0.06831809 -0.16711867 
-0.4623648 -0.024463171 -0.17235763 
0.31217715 0.1242586 0.11435058 
-0.13954398 -0.09312463 0.12734373 
0.375 -0.033567656 -0.16664192 
0.37629133 0.12364616 -0.080169074 
0.2504327 -0.09793143 0.17913714 
0.05475046 -0.10439549 0.16620901 
-0.5 -0.002758487 -0.14388196 
0.0035586138 -0.11200668 0.15098664 
0.4759218 0.1057891 0.0038904846 
-0.123395 -0.019613942 0.11289544 
-0.4428414 -0.012795391 0.1870539 
-0.34375 -0.056847088 0.11358298 
-0.12160318 0.08476086 0.09821148 
0.10976139 0.101877145 0.0625 
0.08537098 -0.07881034 0.1875 
0.40508378 0.04295452 -0.04396086 
-0.17047065 -0.09082598 0.15625 
0.18470734 0.09375 0.09492601 
-0.0067529106 -0.04627372 0.13531613 
-0.22759777 0.125 0.09823893 
-0.30206457 -0.084734745 0.1875 
-0.39148277 -0.04672024 -0.060592666 
-0.375 0.025894077 0.05866714 
-0.47952285 -0.09560446 -0.10312158 
0.391941 0.013157749 0.1875 
-0.32596034 0.11193272 0.0625 
0.025139226 -0.125 0.06968483 
0.34375 0.009536925 0.084429994 
0.18630299 -0.09375 0.14253458 
0.47263345 -0.10743329 0.008727128 
-0.0104371505 0.045479514 0.10338778 
-0.450411 0.036756873 -0.033449087 
0.4030318 -0.045593105 -0.052275173 
0.28575495 -0.074330196 0.15625 
-0.22294351 0.125 0.07646354 
0.082159184 0.067848444 0.0625 
0.5 -0.05927987 -0.09170077 
0.3474511 0.10268136 0.062021736 
0.375 0.050643187 -0.057325765 
0.18973933 -0.12431058 0.11405453 
-0.34615305 0.08922589 0.1875 
0.20845081 0.0625 0.17268205 
-0.5 0.06072704 0.11914235 
-0.0024510894 0.04656085 0.13664652 
0.3144166 0.08152958 0.1875 
-0.26655242 -0.09676837 0.18146327 
0.25657952 0.125 0.07427557 
-0.5 0.007155495 0.08567602 
-0.44735584 0.0031053668 -0.10919853 
0.40412468 0.04622368 -0.054989215 
0.3767046 0.022858435 -0.021834088 
-0.33514127 -0.028959312 0.15625 
-0.375 -0.08106267 -0.021520812 
0.15888096 0.125 0.06885447 
-0.2242412 0.0735556 0.15625 
0.0061679473 -0.0856416 0.0625 
-0.29220653 0.09739352 0.18021294 
-0.375 0.07960486 -0.09790292 
-0.375 -0.0632595 0.040445857 
0.42444366 0.053265616 0.1875 
-0.5 0.001892398 -0.013769352 
0.12583089 -0.10852658 0.15794684 
-0.375 -0.06423864 -0.124454655 
0.48213732 -0.100440465 -0.08368907 
-0.3929923 0.1136131 -0.11456659 
0.5 -0.04404798 -0.09204701 
-0.35976416 0.09160601 0.063277446 
0.012020226 -0.12467519 0.10846676 
0.38830826 0.077004306 -0.16092378 
0.12742293 0.02803899 0.15625 
0.18848947 0.0625 0.16952226 
-0.43474358 0.12287211 0.04210273 
0.46770602 0.10989699 0.06998614 
0.47379065 -0.08265596 -0.13011824 
-0.35020688 -0.054067075 0.073275805 
-0.12660252 -0.11177875 0.1514425 
0.375 -0.032487135 0.022344189 
0.029527565 0.11239567 0.0625 
0.0017157643 -0.046739936 0.07282129 
0.2937537 -0.09915594 0.17668813 
-0.34375 -0.02024884 0.085913025 
0.375 -0.10672016 0.027593365 
0.375 -0.021790722 0.032856487 
-0.20429388 -0.0625 0.17636073 
-0.06723541 -0.107249975 0.0625 
0.47611114 0.02239049 -0.10345582 
0.39748156 -0.125 0.047629848 
0.5 0.04924332 0.0057075736 
0.49507788 -0.09621106 0.014446187 
-0.24547708 -0.125 0.08686 
0.11292149 0.06932108 0.08956504 
-0.3330252 -0.09925732 0.0625 
-0.5 0.08713916 0.11424646 
0.49667343 -0.09479296 0.13669549 
-0.39309245 0.06659179 0.1875 
0.41784096 -0.11750832 -0.10465525 
-0.46331328 -0.11209336 0.060267854 
0.375 0.0866069 -0.0024592883 
-0.375 -0.10335101 -0.07376856 
0.15956156 0.12366737 0.117716655 
0.375 -0.093225166 -0.10288566 
-0.21350627 -0.09375 0.13512115 
0.0010273114 0.08786725 0.0625 
-0.30177334 0.11212379 0.0625 
0.3034202 -0.054723516 0.15625 
-0.376793 0.12002728 -0.097180694 
0.4442318 0.12031877 -0.032803077 
0.17507221 -0.0625 0.16254102 
-0.43708676 -0.044947956 -0.04958447 
-0.114827044 0.0747613 0.08971949 
-0.14930327 0.09763627 0.17972748 
0.35139537 -0.125 0.10044149 
0.15620053 0.09375 0.1406062 
-0.460342 -0.113579005 0.09271517 
0.39468977 0.093244135 0.1875 
-0.3984371 0.119617306 0.13407329 
0.13451673 -0.1246171 0.0625 
0.2807197 0.07968593 0.15625 
-0.39662144 0.125 0.07822243 
0.375 -0.096758425 -0.06228268 
-0.106304266 -0.08811506 0.1875 
-0.08175447 -0.07847415 0.0625 
-0.375 0.1068563 -0.055433583 
0.45187202 -0.053209063 -0.16712177 
-0.020610005 -0.09978336 0.17543328 
-0.3913313 0.10630314 -0.12814884 
-0.4952842 0.025144204 0.1485664 
-0.45983917 -0.11383043 0.009277125 
0.30758002 -0.10456893 0.16586214 
-0.375 0.057946067 0.020355787 
0.34375 0.025045324 0.13602975 
-0.39664847 0.11593312 0.14285895 
0.39986157 0.09434471 0.18631057 
0.056498483 -0.116903365 0.14060228 
0.375 0.0300873 -0.15319371 
0.35788044 -0.125 0.08315295 
-0.06843089 0.10252855 0.1699429 
-0.15063044 -0.04139944 0.1841442 
0.13024049 0.119062304 0.13557586 
-0.3456945 0.08287347 0.06620982 
0.36304337 0.039849553 0.1875 
0.375 0.000900934 0.033119045 
0.15357105 0.028677143 0.17515388 
-0.3630196 0.013447442 0.1875 
0.3049284 0.07701882 0.1875 
-0.41439295 0.10327858 0.16844285 
0.019753795 0.07973687 0.1875 
-0.024936002 -0.039458692 0.097702354 
0.4792267 0.046219606 -0.069539286 
0.27388537 -0.116565175 0.14138964 
0.34627226 0.051862378 0.07367805 
-0.121365815 -0.02975599 0.07437378 
0.1156918 -0.07681989 0.11250128 
0.375 0.026863936 -0.12795477 
0.39754894 -0.07120212 -0.16520654 
0.047932222 -0.026132004 0.0625 
-0.375 0.10230373 -0.02951481 
0.17067428 -0.09809781 0.1788044 
0.035394285 0.03347468 0.1875 
-0.12582025 0.053607855 0.15625 
0.039514735 -0.11099416 0.1530117 
-0.11738266 -0.042748753 0.12173231 
-0.3002139 -0.10785125 0.15929751 
-0.5 -0.08594676 0.012523485 
0.4195192 -0.12481102 -0.059553817 
-0.15722501 0.125 0.0884157 
0.4654884 0.018973175 -0.1717797 
-0.10414943 0.09854056 0.17791887 
-0.062477406 -0.07915845 0.0625 
-0.0314295 -0.034385722 0.086520925 
0.4234908 0.12452872 0.0021789558 
0.24459441 0.08091862 0.1875 
-0.23392871 0.1123507 0.0625 
-0.13775036 0.088680014 0.15625 
-0.30392003 -0.09375 0.07672037 
0.41352352 -0.025370162 -0.10169105 
-0.4235871 -0.040713817 -0.039314546 
0.14082593 -0.12333894 0.11958652 
-0.42169535 0.09272096 -0.14571571 
0.12813705 0.11247332 0.15005335 
-0.112737596 0.056976788 0.069379866 
-0.12089093 0.013693234 0.1875 
-0.33641416 -0.10782951 0.0625 
0.34375 -0.052094266 0.13563803 
-0.25618252 0.123575576 0.0625 
-0.42153037 0.12476324 -0.05563713 
0.34375 -0.054706875 0.07369651 
-0.24487634 -0.123004645 0.0625 
0.375 0.09815369 -0.11395778 
-0.375 0.08873212 -0.049879763 
-0.4615185 -0.10954859 -0.089891694 
0.5 -0.04291891 -0.14515418 
0.10979332 -0.122814275 0.12257367 
0.375 0.074389815 -0.09074864 
-0.015945727 0.111854754 0.15129049 
-0.41730678 0.124937885 -0.045390196 
-0.1753335 0.08946385 0.1875 
-0.11587638 0.046630215 0.10272835 
0.044611055 -0.024812508 0.0625 
-0.31973752 -0.09273099 0.08801403 
-0.12732887 0.03933188 0.1875 
-0.4688694 -0.07887876 0.17898013 
0.044537894 -0.054123417 0.1875 
-0.2368122 -0.116402835 0.14176759 
-0.46531606 0.03732234 -0.1670759 
-0.10340551 0.125 0.06638347 
-0.23710187 -0.125 0.09574666 
-0.11143861 0.07602799 0.0625 
0.3618831 -0.074719824 0.068593815 
-0.42905983 -0.04388065 -0.046259396 
0.43385038 0.046780955 -0.06395802 
-0.04263932 0.019163618 0.10942843 
-0.18225068 -0.12175941 0.12686524 
0.375 0.03266449 -0.12827516 
0.15476002 -0.0604879 0.1629062 
-0.112961456 -0.069578364 0.08928905 
0.18091963 0.09375 0.14594422 
-0.4556564 0.11580636 0.048683718 
0.42419782 0.11586375 -0.107888356 
-0.20251003 0.125 0.09595858 
-0.45650116 -0.1154435 0.03426299 
-0.14225927 0.0936552 0.102645814 
-0.13790838 0.0026032007 0.15625 
-0.40798864 0.1230186 -0.08461734 
0.42373252 0.11827686 -0.1013301 
-0.09656496 -0.123644754 0.117845386 
0.41697958 -0.046684854 -0.059277825 
0.3327574 -0.10911544 0.15676914 
0.3432833 0.06571362 0.10025643 
0.27342153 -0.06398942 0.1875 
0.20957172 0.11745376 0.0625 
-0.22480202 -0.0933471 0.15625 
0.375 -0.09699282 0.023088392 
-0.49982858 0.008790878 -0.016768822 
-0.032884482 -0.041201886 0.1875 
-0.37453294 0.04334055 0.07505705 
-0.07176016 0.10573291 0.16353418 
-0.04590064 -0.0083126165 0.18665397 
0.25713208 -0.09375 0.1464123 
0.4412772 -0.12118932 0.018343806 
-0.43245032 0.112371765 0.15025648 
-0.5 -0.013363127 0.103015795 
0.41358468 -0.125 -0.045501504 
0.39677572 -0.06951844 -0.16630423 
0.46624246 -0.11062876 0.03733088 
0.4576041 -0.036106832 0.18399185 
-0.123633884 -0.01814521 0.12514782 
-0.1368783 0.08841895 0.15625 
-0.47453868 -0.106480666 -0.048149932 
-0.41528282 -0.125 -0.014666583 
0.29703045 -0.0844376 0.1875 
-0.3125 0.0059366734 0.15713017 
0.3831016 -0.10543312 0.16413377 
-0.49216014 -0.09766994 0.0634541 
-0.12261997 0.025849847 0.15625 
-0.45360872 0.079250544 0.18531618 
0.374318 0.09806948 0.17886102 
0.41054443 0.10963245 -0.122473605 
-0.49897617 -0.05658944 -0.13787517 
0.12488048 -0.004772171 0.088072516 
-0.1306444 0.0981635 0.17867301 
0.20399985 0.070666105 0.15625 
0.23666131 -0.0625 0.17218286 
-0.20153838 -0.1135253 0.0625 
0.46772632 -0.017904557 -0.105816424 
-0.38067323 0.10420765 -0.13147423 
-0.3125 -0.027028918 0.17925002 
-0.375 0.09846736 -0.0056569884 
0.4913281 0.086934246 0.15666799 
0.375 -0.11573624 -0.10765853 
0.11869967 -0.125 0.06612563 
0.5 -0.05169086 -0.119228676 
-0.017796423 -0.10770108 0.0625 
0.051242337 0.12371167 0.11746439 
-0.41517097 0.063748136 0.1875 
0.42286825 0.1237108 -0.07754023 
0.13270542 0.090580285 0.15625 
-0.14084427 0.08967457 0.1875 
-0.47502553 -0.010534497 -0.168119 
0.375 -0.06293478 -0.023691976 
-0.18416485 -0.09375 0.14137891 
-0.15275893 0.024933545 0.15625 
0.375 -0.09566361 -0.11458894 
-0.34734163 0.125 0.10266953 
-0.46046278 -0.019872125 -0.10474477 
-0.4107735 0.125 -0.023328166 
-0.046833877 0.12493896 0.10392073 
0.0036540134 0.125 0.088884756 
0.10305475 0.036935665 0.1875 
-0.375 -0.10212437 0.011988391 
-0.3100894 -0.11149738 0.0625 
0.16855675 -0.09375 0.1422364 
0.5 0.054976176 -0.11414733 
-0.19771905 0.06637886 0.15625 
-0.44861767 0.060782164 0.18646412 
0.1877379 0.09375 0.08348518 
0.119292066 -0.037209228 0.10931279 
-0.23916525 -0.1195248 0.13435957 
-0.44917876 -0.04593522 -0.053690318 
-0.0799004 0.061499506 0.0625 
-0.21418491 0.11405055 0.1468989 
-0.1868015 0.09375 0.07843157 
-0.113392815 0.05447568 0.0657901 
-0.03726479 -0.028353553 0.1201705 
0.375 -0.06117403 -0.02358063 
-0.4931035 -0.09719826 -0.046389498 
-0.375 0.11633201 0.045170464 
-0.24522033 0.09375 0.14287683 
0.124813005 0.006644081 0.10376217 
0.4347031 0.041806646 -0.04182958 
0.4365212 0.069538705 0.1875 
-0.035554443 0.030492263 0.16195692 
0.31061363 0.09724986 0.1805003 
0.5 -0.071632676 -0.10777561 
-0.018041814 0.06980508 0.1875 
0.0028255468 -0.046719726 0.07203867 
0.1246216 0.0086281225 0.1452253 
0.08386693 -0.080841556 0.1875 
-0.2776723 0.125 0.081882134 
-0.46406132 -0.11171935 -0.0049939747 
-0.17676479 0.09375 0.1384945 
0.40167284 -0.02309962 -0.021785414 
0.34524798 -0.09841176 0.17817648 
0.46989027 -0.0046938574 -0.17107116 
-0.49980652 -0.05505232 0.12833597 
0.44324845 -0.031160744 -0.027615163 
-0.13809675 -0.08884462 0.15625 
0.022168845 0.07936744 0.1875 
-0.18104699 -0.125 0.08660835 
-0.12887572 -0.07103953 0.15625 
-0.10106754 0.052390322 0.0625 
0.47675827 -0.029699173 -0.02624087 
0.27276507 -0.10621707 0.0625 
-0.30743307 0.12007185 0.13252483 
0.375 -0.05105444 -0.14877713 
-0.12179792 -0.027956787 0.10163709 
-0.088826686 -0.125 0.068947844 
0.5 0.03634643 -0.13786368 
-0.13635656 -0.1220119 0.12601843 
-0.1584848 -0.061846033 0.18458007 
-0.46928862 0.017843785 -0.019205084 
0.45010167 -0.02776579 -0.025101716 
-0.38543007 0.07629236 0.1875 
0.5 -0.038561355 -0.0016339706 
-0.40319213 0.025206229 -0.18488793 
-0.40075037 -0.11990117 -0.09765046 
0.32190883 -0.05526751 0.1875 
-0.08221611 0.030427521 0.0625 
0.41627187 0.12494755 -0.013208915 
0.30942965 0.089302525 0.15625 
0.082317814 0.125 0.09238205 
0.5 0.081883535 -0.0927704 
0.015062644 -0.044348314 0.08291926 
-0.5 -0.088167995 -0.06530655 
-0.39640924 0.125 -0.055222392 
-0.1881422 -0.11296829 0.0625 
-0.008665382 0.124448836 0.0625 
-0.30480412 -0.07691839 0.15625 
-0.27924144 -0.08628109 0.15625 
-0.5 0.08917553 -0.082114875 
0.14949825 -0.105206296 0.16458741 
0.11268384 0.057117604 0.14778031 
0.092863746 0.0779334 0.0625 
0.21444833 0.10006191 0.17487618 
-0.3676021 -0.125 0.05071418 
-0.49806598 0.020314312 0.13983408 
0.5 0.05375322 -0.1137595 
-0.23410267 0.0625 0.16162236 
0.4775906 0.03407011 -0.16171966 
0.45180294 -0.04661411 -0.05763948 
0.3603398 0.075824566 0.1875 
-0.375 0.07357859 -0.06945576 
-0.03329157 -0.032794945 0.069589056 
0.38446137 0.046645213 -0.06622115 
-0.021171087 -0.123789385 0.0625 
0.5 0.054667544 -0.03099208 
0.19282338 -0.11135756 0.15228488 
-0.30939528 0.125 0.0706224 
0.39166915 0.044600803 0.1875 
-0.375 -0.009016739 0.050635975 
-0.21094663 0.09375 0.06778954 
0.41221845 -0.125 0.097116396 
0.5 0.0040059444 -0.1212371 
0.33580953 0.08286424 0.15582226 
-0.42415202 0.08362994 -0.15467024 
0.43667445 -0.03616988 -0.17944582 
-0.3138675 -0.12074763 0.0625 
-0.44601476 -0.019358175 -0.18060233 
0.3537258 -0.125 0.08026174 
0.5 -0.042308234 -0.097505815 
-0.40387464 -0.122821756 0.122582585 
0.35388437 -0.12499749 0.102911904 
-0.45623514 0.05556046 0.18453565 
-0.46160892 -0.083338335 -0.13868207 
0.375 0.07545239 0.003028548 
0.09360021 0.03606715 0.0625 
0.11484678 0.07481077 0.086580776 
0.048870746 0.044424087 0.1875 
-0.17677456 0.10526983 0.16446036 
0.05712688 0.11200573 0.15098853 
0.375 0.024283785 -0.135682 
-0.3858601 0.09564615 0.1837077 
-0.47944313 -0.104028426 -0.0039318344 
-0.14251237 0.12287227 0.0625 
0.13414288 0.06267708 0.1875 
0.029395578 0.062000263 0.0625 
0.1518569 0.010717074 0.1875 
0.42615414 -0.019292412 0.1875 
-0.44152206 0.028341012 0.1871556 
0.11173684 -0.016838161 0.0625 
-0.4247541 0.034881458 -0.18190081 
0.18240565 0.125 0.096958384 
-0.5 -0.08683601 0.058670264 
0.2820675 0.09375 0.073284574 
-0.21012893 0.125 0.102380976 
0.37987605 0.01681466 0.1875 
0.11884336 0.038589865 0.109018005 
-0.11610045 -0.046043508 0.09843879 
-0.49730128 0.09509935 0.062060207 
0.30898613 0.044950463 0.18070097 
-0.31494755 -0.04178141 0.1875 
-0.04783908 0.05780915 0.0625 
0.39908865 0.021449484 0.1875 
0.43244922 0.01911902 -0.18425278 
0.037778087 -0.057748772 0.1875 
-0.5 0.045772042 -0.07863487 
-0.41894442 -0.12478671 -0.035898976 
0.3843239 0.09281807 0.1875 
0.375 -0.029216595 -0.14515029 
0.4991344 -0.013951741 -0.10700105 
0.3990625 0.125 -0.02674792 
-0.5 -0.05508725 -0.04882853 
0.31237972 -0.032025117 0.15645836 
0.375 -0.015078072 0.020874348 
-0.34375 -0.0007746402 0.1061595 
0.13735394 -0.057248317 0.15625 
-0.48735097 -0.10007452 -0.019657463 
-0.3125 -0.008689575 0.17443112 
-0.4340105 -0.11708244 -0.10000193 
-0.48616207 0.056122847 0.16408762 
-0.46222645 -0.08396336 0.18229038 
0.44909346 0.09947871 -0.12691979 
-0.061153363 0.1197349 0.13365495 
-0.22272271 -0.0625 0.15878604 
-0.14912629 0.052606646 0.18132687 
-0.19481923 0.125 0.0755868 
-0.019319093 -0.04264702 0.16100533 
0.3943234 0.12455534 -0.072753705 
0.08628079 -0.008368797 0.0625 
-0.4407 0.11787642 -0.09112246 
-0.375 0.09170046 0.0066205612 
0.4289954 -0.050667405 -0.17545989 
0.13362327 0.10995592 0.0625 
-0.41765058 -0.12486704 0.06653879 
-0.15544051 -0.015202857 0.16473065 
0.5 0.02802612 -0.014229657 
0.11197752 -0.062744334 0.09475395 
0.28060374 -0.125 0.07647348 
0.12496919 0.0012510726 0.15288061 
0.22591884 -0.09375 0.071448006 
-0.39543915 -0.058045823 -0.17307526 
0.375 -0.043440837 -0.015173969 
-0.46555528 -0.11097236 0.07560599 
0.43190688 0.012248663 0.1875 
-0.13802402 0.09113892 0.15625 
0.30690137 -0.08246754 0.1875 
0.43841276 -0.114504844 0.14584798 
0.19054663 -0.125 0.07944285 
-0.20927724 0.09375 0.13078521 
-0.41375318 0.12471385 -0.06952536 
-0.14636432 -0.08750213 0.1875 
0.07893985 -0.02531628 0.1875 
0.34745952 -0.12262207 0.1236652 
0.375 -0.047409724 -0.16406994 
-0.5 0.020522606 -0.13449013 
-0.4919619 0.08920946 -0.10240108 
-0.47560662 -0.03163846 -0.097049415 
-0.048242863 -0.12285678 0.0625 
0.375 -0.08954138 -0.09410707 
0.14182869 -0.04003222 0.1875 
0.4886167 0.09944165 0.027140565 
-0.3793748 0.123136215 0.12071985 
-0.44357675 0.12051044 0.08182047 
0.4433888 0.11730131 -0.09027065 
-0.1457307 0.108124636 0.15875074 
0.0699518 -0.10861798 0.15776406 
0.12248645 0.024582209 0.15209737 
0.48014352 0.103397496 -0.06850572 
0.34375 0.0022265874 0.10150586 
-0.27256247 0.125 0.07109077 
-0.108798556 0.037360996 0.1875 
-0.15159601 -0.11714651 0.1400362 
-0.5 0.030050311 0.033543296 
-0.3208056 -0.03574847 0.1875 
0.18202682 -0.09375 0.074597515 
-0.15345922 -0.10290986 0.16918027 
-0.43478313 0.12289978 0.10741463 
-0.5 -0.06853695 -0.014069327 
-0.1908731 0.0625 0.17288442 
0.47418636 -0.10665683 0.011334631 
-0.375 0.05708225 -0.00955185 
0.5 -0.04588726 0.028748875 
0.34375 0.016445145 0.14240344 
-0.47432843 0.043134876 -0.15987308 
-0.34384954 -0.09005096 0.06377926 
0.24133018 -0.10059017 0.17381968 
0.35026535 -0.096342355 0.18231529 
-0.5 -0.079959184 0.08084018 
-0.48802963 -0.038751796 -0.03618809 
0.1520503 0.124989726 0.103045724 
-0.07052941 0.042667832 0.0625 
0.4951548 -0.07161556 -0.12664393 
0.375 -0.0061495956 -0.13844278 
0.5 -0.035037868 -0.011152071 
0.4117334 -0.12302407 -0.08457922 
0.19583428 -0.09960226 0.17579548 
0.375 0.053108897 -0.0142068295 
0.5 0.054050338 -0.098855786 
0.2534031 0.09375 0.08528505 
0.029628422 0.0362056 0.15787846 
-0.3125 0.021285258 0.16179274 
-0.375 -0.10454506 0.023979966 
-0.45591882 -0.11569363 0.03456824 
0.14840607 -0.08502829 0.1875 
-0.38066503 -0.031191602 0.1875 
0.5 -0.05896196 0.053741567 
0.14850795 0.09375 0.14467706 
0.4655026 -0.110998705 -0.01635783 
0.44720414 -0.003743542 0.18667439 
0.11472878 -0.04958461 0.1047872 
-0.14857167 0.018029438 0.1875 
0.49479195 -0.09635403 0.017520651 
0.49350184 -0.008519959 0.15266715 
0.05183091 0.100168355 0.0625 
-0.3357185 -0.07235266 0.15625 
-0.0009756631 -0.12297141 0.12167904 
0.375 -0.051800914 0.040964134 
0.19525999 0.09375 0.08834252 
-0.45556298 0.05503455 -0.16434199 
0.10504479 0.045147095 0.0625 
-0.48228195 0.04522834 -0.15452385 
-0.16282018 -0.120089896 0.13246436 
0.3247433 -0.04121834 0.1875 
-0.43023273 -0.011306923 0.1875 
-0.46188545 0.05306467 0.18246405 
0.11917557 -0.121860445 0.12652637 
-0.124801785 0.005834205 0.12590687 
0.15139972 -0.018416384 0.1875 
-0.5 0.091306284 0.1015586 
-0.23220862 0.09375 0.07257695 
0.4865584 -0.043739766 -0.07881173 
0.28370193 0.09375 0.13053857 
0.19584227 0.09375 0.13134342 
0.21353556 -0.06278311 0.15625 
-0.18601257 -0.09375 0.090557344 
0.4177846 0.020835266 0.1875 
-0.11697983 -0.11876975 0.0625 
-0.043316748 -0.01756669 0.11736357 
-0.04558254 -0.124879494 0.10494559 
0.33671078 -0.029389204 0.1875 
0.38433444 0.125 0.08045406 
0.4551733 0.11600962 0.091928296 
-0.14434348 0.125 0.09391427 
0.124829404 -0.08768265 0.1367501 
0.33589888 0.125 0.0936316 
-0.0667112 -0.04230811 0.0625 
-0.47787744 0.096197255 -0.10381673 
0.11223601 0.062148035 0.07846521 
-0.34375 0.010016106 0.12765148 
-0.375 0.086293705 -0.04752454 
-0.30116495 -0.124297336 0.11412999 
0.44711214 0.119386464 -0.042409025 
0.375 -0.030433 0.052495588 
0.20968933 0.12472891 0.10754091 
0.33939537 -0.07789051 0.13181444 
0.36856818 0.077225655 0.06788245 
-0.5 -0.06672873 -0.097238176 
-0.44940692 0.11763811 -0.0770377 
0.45876324 0.11436838 0.012519991 
0.17235455 0.09375 0.09068137 
0.007730225 0.125 0.09504267 
0.4208776 -0.116762124 -0.10609319 
0.34240848 0.06862371 0.10304203 
0.5 -0.0439242 0.07249428 
0.5 -0.018094013 -0.0101439515 
-0.08756981 -0.007684825 0.1875 
0.4893552 -0.033520162 -0.095144294 
-0.4308479 -0.12355683 0.06719425 
-0.3811617 0.02158802 0.1875 
-0.437933 0.04118394 0.18746029 
0.30834728 -0.11988025 0.1331674 
-0.11127664 -0.08991437 0.0625 
-0.111648075 -0.1052171 0.0625 
-0.24031794 0.1248842 0.10486438 
0.375 0.019132148 0.036192145 
-0.38585365 0.12148826 -0.09156186 
0.5 0.06470574 0.04482278 
-0.0826138 -0.044669647 0.0625 
0.38915214 -0.125 0.0102717625 
0.040988225 0.022405079 0.12301537 
0.011083322 0.125 0.08586871 
0.1304248 -0.026658392 0.1875 
0.2383881 -0.12333928 0.11958456 
0.5 0.06132216 -0.068413146 
0.21438573 -0.08512301 0.15625 
0.375 0.10391048 -0.07610347 
0.45643806 -0.11547053 -0.020278543 
-0.33957106 0.11192577 0.15114847 
0.38302535 -0.032624383 -0.1830699 
0.44842517 0.1189229 -0.061940115 
0.47651616 -0.102507286 0.14721853 
-0.09366463 0.07251077 0.1875 
-0.4796953 0.044051636 0.170749 
-0.34375 -0.05875006 0.15532702 
-0.375 -0.074843235 0.0216972 
0.33945945 -0.125 0.09512127 
-0.4229742 -0.067032374 -0.16744342 
-0.093114555 -0.125 0.083074495 
0.28333712 0.11611493 0.0625 
0.18252055 0.087809786 0.15625 
-0.25144282 0.09375 0.09576874 
-0.3127588 0.125 0.06594967 
-0.34375 -0.0374907 0.14772095 
-0.13629834 -0.09269855 0.14549239 
-0.4822363 0.005141735 0.16858728 
0.13072407 -0.021657184 0.1875 
0.5 0.03909234 -0.13889016 
-0.11817163 0.06868702 0.15625 
0.5 0.017067848 0.013795114 
-0.12310118 0.08632718 0.0850135 
0.20095572 0.089929394 0.1875 
0.31173486 -0.11332878 0.0625 
-0.5 -0.086429685 0.121261075 
-0.41521856 0.12036127 -0.096061915 
-0.11260284 -0.06615836 0.10428056 
-0.028811233 0.124637075 0.10912374 
0.4362147 0.12260429 0.087421015 
-0.3263869 0.124685705 0.10828511 
-0.42809406 0.10104836 -0.13430518 
0.05239976 -0.020892 0.0625 
0.2469655 -0.10095562 0.17308877 
0.029021107 0.06547588 0.0625 
0.03544639 0.030520728 0.13661881 
0.375 -0.050230283 -0.16942263 
-0.49964017 -0.09392992 0.057410095 
-0.431603 -0.123526625 0.107223615 
-0.4348624 0.030352749 -0.026898714 
0.5 -0.08834296 0.047978833 
0.20510447 -0.110561125 0.15387776 
0.49074194 0.036328796 0.15747249 
0.044715453 0.013312377 0.080152564 
-0.1007021 -0.006437124 0.1875 
-0.16075924 -0.09375 0.0762891 
0.27062622 0.0625 0.17762944 
0.08067163 0.10219574 0.0625 
0.13103199 0.12439137 0.113358416 
0.07196312 -0.04468321 0.1875 
0.26617873 0.09375 0.12340143 
-0.3197803 -0.110267065 0.15446588 
0.22459458 -0.09375 0.10434447 
-0.12045246 -0.08345994 0.09585907 
0.46575293 0.11087353 0.029627865 
-0.29656547 -0.125 0.09673795 
-0.5 0.03492798 -0.005171901 
0.41380998 0.030983696 -0.09760895 
0.4563035 0.115503706 -0.064036876 
-0.26447424 -0.09375 0.12486182 
0.16277607 0.125 0.07472228 
0.46736878 -0.06898424 0.17982958 
-0.3182071 -0.06809633 0.15625 
-0.2967063 -0.125 0.070835285 
0.49239925 0.07263626 0.15473647 
0.007522412 0.046212602 0.18701537 
0.47266683 -0.10688483 0.13288276 
-0.41218477 -0.125 0.08901737 
0.41628858 -0.00048761454 -0.015826555 
-0.25014007 0.10541536 0.1641693 
0.5 0.046235427 -0.11634501 
0.094291635 0.028746603 0.1875 
-0.2819462 0.08696858 0.1875 
0.27913016 0.125 0.08041787 
0.37803137 0.125 -0.02989782 
0.48411617 -0.044027418 -0.07837306 
0.038334325 -0.026785515 0.1402749 
-0.47828063 -0.104609676 0.048595015 
0.5 -0.07345032 0.10904275 
0.42266315 -0.12468665 0.10513085 
-0.39044914 -0.125 0.10177941 
0.375 0.051586647 0.033045616 
0.2729004 0.09375 0.13401231 
0.1742804 -0.0625 0.18363589 
0.08794256 0.125 0.0731125 
-0.38347578 0.07119271 -0.16512519 
0.4714567 0.04641341 -0.06881873 
0.375 0.09535638 -0.02231944 
0.4555161 -0.11232793 -0.09045258 
0.23231106 0.09375 0.12825155 
-0.4662323 0.1102873 0.12983458 
-0.5 -0.010593294 0.039585173 
0.46757823 -0.027641641 0.17975764 
0.20635721 -0.11441035 0.1461793 
0.43165433 -0.123421624 -0.03203314 
-0.43164366 0.035859335 -0.180526 
-0.44428033 0.12037828 0.10979776 
-0.22418764 -0.06334311 0.1875 
0.26916644 -0.09375 0.1525116 
-0.1506115 0.04155084 0.16251278 
0.029822335 -0.05111416 0.1875 
0.5 0.0884766 0.025037387 
0.375 0.038440276 -0.034034092 
0.44156364 0.11413277 0.14603654 
0.077748835 0.024527255 0.0625 
-0.375 -0.0789456 -0.02372399 
0.12221271 -0.085409425 0.07519914 
-0.5 0.0017266788 0.11008438 
-0.16065209 0.09375 0.08054599 
-0.03936002 0.072673656 0.0625 
0.49059778 0.06514986 0.15785615 
0.375 -0.099762864 0.05091133 
-0.24447553 -0.11249966 0.15000068 
0.375 0.0200784 -0.13642102 
-0.34375 0.028718907 0.105388135 
-0.16603653 0.09670487 0.18159026 
-0.16345309 0.122472085 0.0625 
0.21227519 0.0625 0.18663982 
0.34781298 0.054017976 0.1875 
0.49129164 0.059177127 -0.14064689 
-0.23361921 -0.0625 0.16529125 
-0.40050888 0.125 0.10036578 
0.30448732 -0.09375 0.13707697 
-0.09959939 -0.012955917 0.1875 
0.375 0.03504322 -0.014373258 
0.4993758 -0.094062105 0.06534622 
-0.13352752 -0.092154406 0.07649916 
-0.12493113 0.09657352 0.18185298 
-0.375 0.08370333 -0.14862566 
0.13162825 -0.091290675 0.09452927 
-0.058752485 0.125 0.090439476 
0.029187348 -0.036511205 0.15706469 
-0.46253952 0.112480246 -0.009537893 
-0.48064855 -0.0023024601 -0.01569733 
0.4768131 -0.10505838 -0.06926386 
-0.375 -0.111697234 0.019733151 
0.3122357 -0.06275238 0.1875 
0.20395768 0.09375 0.096643604 
0.4923049 -0.01908196 -0.10515578 
0.1550448 0.019235348 0.16443709 
0.4462763 -0.045220345 -0.0737581 
-0.0925923 0.040564165 0.0625 
0.04396794 0.11802452 0.13799201 
0.3285427 -0.03626563 0.15625 
0.42550734 -0.04217054 -0.042330775 
-0.375 -0.07080584 0.039919596 
-0.375 0.05613469 0.056990117 
-0.21574079 -0.0971008 0.1807984 
0.18629631 -0.09375 0.12823871 
0.12470091 0.007924264 0.07073307 
-0.11400893 0.05217511 0.13127822 
0.35810852 -0.042390298 0.075156935 
0.31202367 0.09375 0.06862148 
0.17045534 0.10219252 0.17061496 
0.32364383 -0.01627132 0.15625 
-0.21846412 0.074869834 0.15625 
-0.43722948 0.08100641 -0.15417048 
0.42924833 0.12384602 -0.03170332 
-0.24123946 -0.09375 0.08486294 
0.375 -0.04507151 -0.104540944 
0.33219042 0.07835987 0.1875 
-0.40495494 0.125 0.017312368 
-0.5 0.047170334 0.019019991 
0.23462965 -0.09375 0.12051587 
0.31951085 0.10101139 0.17297724 
-0.29172745 0.09375 0.108121686 
-0.4207823 0.0007243496 -0.10916384 
0.4682205 0.095668 -0.1160241 
-0.375 0.046137765 0.028526735 
-0.42718387 0.037509397 -0.18088934 
0.34272355 -0.080365896 0.06693396 
0.31449425 -0.10209995 0.1708001 
0.34375 -0.022010941 0.10017484 
-0.4729085 0.016989494 -0.018951219 
0.4788399 0.07088544 0.17178561 
-0.27309272 0.110944726 0.15311055 
-0.35922316 -0.04432549 0.1875 
-0.5 0.047049474 0.079835325 
-0.5 -0.083927006 0.12028932 
-0.37919867 0.039612334 -0.08721469 
-0.49701554 -0.08990815 -0.09384281 
-0.45122248 -0.11781341 0.111748286 
-0.31955683 0.060721006 0.1875 
0.44460282 0.09006904 0.18695086 
-0.18291633 0.125 0.066240154 
-0.33783698 0.08072499 0.15361263 
-0.2866299 0.125 0.0977536 
0.2221656 0.104708605 0.1655828 
0.48352808 0.09880233 -0.08765041 
-0.21856005 0.11115895 0.1526821 
-0.2805987 0.08710178 0.1875 
0.375 0.013347432 -0.14213672 
0.5 -0.029696202 -0.00836872 
-0.09068555 -0.026094537 0.0625 
-0.007991366 -0.046117887 0.17223333 
-0.3357931 -0.0825429 0.119222954 
-0.4716465 0.020983566 0.1772412 
0.375 0.030590745 -0.17143026 
-0.5 -0.0120038055 -0.11244334 
-0.44613215 -0.11974168 0.015183812 
0.14782383 0.008458602 0.1875 
-0.33980924 -0.06465296 0.15625 
-0.375 0.043471463 -0.12173374 
0.12839365 -9.8527256e-05 0.15625 
0.17513089 -0.070568725 0.15625 
-0.4653504 -0.111074805 -0.0042857584 
-0.47126168 -0.10136029 -0.10002937 
0.18277897 0.0625 0.17895696 
0.12088969 0.064766064 0.15625 
0.21197215 -0.077317886 0.15625 
-0.375 -0.047173724 -0.15869343 
-0.375 0.0573989 -0.10932781 
-0.10643549 0.08087024 0.1875 
-0.4545368 0.045098983 -0.07470362 
-0.5 0.042351235 0.030391669 
0.375 0.05409898 -0.16848546 
0.46391004 -0.04419587 -0.07745292 
-0.05213587 0.08365023 0.1875 
-0.4999713 0.015687512 -0.15490985 
-0.4287292 -0.121888824 0.12646738 
-0.46358815 0.11195593 0.06484168 
-0.48027253 0.041480888 -0.08428647 
-0.1809894 -0.08034722 0.1875 
0.2213039 -0.125 0.08508753 
-0.37769395 0.025558792 -0.10153609 
-0.4889097 -0.096736625 -0.08465265 
-0.26598945 0.11360855 0.0625 
0.47224718 0.028340517 0.17681395 
0.375 0.12423894 -0.0689813 
0.29720733 -0.10393077 0.0625 
0.42343783 -0.037783194 -0.090111434 
0.43963683 -0.076416336 0.18736167 
-0.058394376 0.09865933 0.17768136 
0.375 0.03643475 -0.01285199 
0.5 -0.08601023 -0.045760453 
-0.10120859 -0.125 0.07378054 
0.15473463 -0.12275617 0.122904494 
-0.0557682 -1.28610145e-05 0.0625 
0.375 -0.0342637 -0.16428883 
-0.49744475 0.047136296 0.14217593 
0.23864649 0.125 0.09375458 
-0.36283517 0.11915433 0.055766646 
-0.43936226 0.06447758 -0.16568537 
0.1123365 -0.06560779 0.14146788 
0.22885294 -0.09375 0.12761119 
-0.4937758 -0.054954767 0.15159127 
0.49084112 0.033592418 -0.09511033 
0.4294053 0.10818868 0.15862265 
0.29317284 -0.07761616 0.15625 
-0.30409965 0.11473654 0.0625 
0.12158268 0.08468832 0.088482134 
-0.33157668 -0.10284829 0.16930342 
-0.42809594 -0.121115044 0.1294371 
0.12000219 0.053722404 0.1875 
0.31077406 0.12450546 0.11139182 
0.25755674 -0.11870507 0.13640755 
0.26134282 0.125 0.089819245 
-0.45339888 0.025252117 0.18522723 
-0.406195 -0.0028462885 -0.18739186 
-0.47353706 0.10698147 0.02791741 
0.4014835 0.015680108 0.1875 
-0.28891927 -0.125 0.09524111 
0.029130515 -0.12445804 0.112209365 
-0.3105705 -0.058706764 0.1875 
0.49514255 0.043249685 -0.044858955 
0.49286816 0.097315915 -0.042025212 
-0.38555568 -0.04495929 -0.04994652 
-0.375 0.11457271 -0.098352194 
0.46910724 -0.04034646 -0.08603606 
0.12256555 -0.024034584 0.14248884 
-0.09114974 0.11501474 0.14497052 
-0.14885458 0.100788295 0.17342342 
-0.45931286 0.08500755 0.18342644 
-0.4626162 -0.105564944 -0.101117246 
-0.47639135 -0.10555432 0.10655482 
-0.04627755 0.0070876908 0.09248073 
0.119385995 -0.11590945 0.0625 
-0.27830574 0.09375 0.06426775 
0.47229657 -0.04518803 -0.07466401 
0.374381 -0.053057656 0.07346823 
-0.5 0.027856074 0.07660287 
0.31239858 -0.03192418 0.161626 
0.4718808 0.10780962 0.056010358 
0.33435082 -0.1174726 0.13927716 
0.3937899 -0.0001402284 -0.10936371 
-0.48985115 0.098824434 -0.036027636 
-0.34289867 -0.11889469 0.13596666 
0.11607572 0.040317718 0.1875 
-0.375 -0.08888019 0.015629176 
0.11337993 -0.054638192 0.13169037 
0.43209594 -0.041825727 -0.04140544 
0.30399108 0.125 0.076384075 
0.109761335 -0.077245876 0.1875 
0.375 0.07926301 -0.11148705 
-0.10230101 0.11043026 0.15413946 
0.27609587 0.125 0.076250836 
0.29765308 -0.05752141 0.18596411 
0.43795696 -0.12220292 0.103406094 
0.4156236 0.1249852 -0.0022344936 
-0.24379188 -0.0625 0.17650628 
0.20431808 0.10664262 0.0625 
0.45903587 0.0014996887 -0.10923286 
-0.49919942 0.0120557705 0.13462171 
-0.26696387 -0.090591654 0.1875 
-0.375 -0.109588616 -0.0073041916 
-0.375 0.069542125 -0.009738844 
-0.24292712 0.09375 0.13824321 
0.12591243 -0.102764755 0.16947049 
-0.21850814 -0.12310115 0.12094034 
-0.124923706 -0.0038277702 0.0867104 
0.5 0.01886962 0.07200689 
0.45684922 0.097355634 -0.124209315 
0.15934964 -0.125 0.0995117 
-0.11228373 0.05978477 0.109192036 
-0.21223108 0.06520878 0.15625 
0.21196622 0.095175184 0.18464965 
-0.460524 -0.07119361 -0.1507661 
0.13714723 0.1212718 0.12850055 
0.18621834 0.09375 0.13692254 
-0.20536725 -0.1227346 0.1230273 
-0.10656543 0.09033519 0.1875 
-0.4370861 0.04565211 -0.17597863 
0.375 0.023728712 0.04344079 
-0.375 -0.05668924 0.022513995 
0.28884903 -0.125 0.072090544 
0.033102944 0.03309943 0.16688322 
-0.44919595 0.11856566 -0.037014727 
0.38311785 -0.017664421 -0.10583378 
-0.15599453 -0.008200908 0.15896209 
0.47521567 0.022003803 -0.16624312 
-0.12934862 -0.047463488 0.15625 
-0.34375 0.029489597 0.123102635 
0.45598835 0.04127455 -0.084705524 
0.16055818 -0.06235823 0.18514194 
0.01633351 -0.116672635 0.0625 
-0.42738768 0.04080998 -0.08535175 
0.15230219 -0.12462537 0.10932538 
-0.019488558 -0.125 0.08574843 
0.47323817 0.10713092 0.0054487996 
0.4199477 -0.01301851 0.1875 
0.03370817 -0.032345872 0.14738362 
-0.375 -0.11915716 0.015076739 
0.02332795 -0.04589483 0.1875 
-0.4791993 -0.09605683 -0.102500394 
0.22897393 0.09375 0.10946134 
0.34375 0.050903063 0.10070282 
-0.24103345 -0.096150875 0.18269826 
0.23440696 -0.09375 0.14676294 
0.42400512 -0.12449849 -0.015476619 
0.31073838 -0.08163585 0.15625 
-0.375 -0.08801561 0.021578684 
-0.375 0.023384208 -0.017595971 
0.3242244 -0.09122025 0.0700266 
0.3984588 -0.0074290456 -0.10870814 
0.423639 0.124520116 0.025984747 
-0.4920056 0.0977472 -0.040400684 
-0.34375 0.04950735 0.09043653 
0.15430738 0.11702816 0.14031172 
0.03485413 0.057830945 0.1875 
0.1168649 -0.124581106 0.11008837 
-0.33140227 -0.125 0.10286423 
-0.11202791 0.093642764 0.1875 
-0.12167527 -0.02839041 0.0824806 
-0.375 -0.091245465 -0.030929744 
-0.40271312 -0.022647759 -0.021576086 
0.1328103 -0.10790256 0.15919489 
0.12183693 -0.12221459 0.12533864 
-0.24159637 0.11799975 0.13804969 
0.07774648 0.11347267 0.14805466 
0.1282363 -0.08963821 0.136861 
-0.375 -0.09013382 0.039796308 
0.18340234 0.09375 0.13711205 
0.4808786 -0.10276649 -0.07293934 
-0.41677767 0.08954546 -0.14952661 
0.3243177 0.11583411 0.14309171 
0.3433206 0.066548645 0.08985488 
0.33439457 -0.031617764 0.1875 
-0.09695827 0.12110096 0.12907349 
0.093056306 -0.0014164229 0.1875 
0.37707996 -0.125 0.025055395 
-0.28263998 0.08518446 0.1875 
0.0464741 -0.0043600104 0.16760184 
0.09586852 -0.0132658165 0.0625 
0.19063288 0.11003296 0.0625 
-0.2518902 -0.09375 0.14571029 
0.375 0.022609906 -0.124307625 
0.48159406 -0.022054804 -0.103621274 
-0.34375 0.002105278 0.10568719 
0.434941 -0.1228374 0.04103895 
-0.375 0.011639908 -0.16299702 
-0.12752537 0.12498119 0.103192925 
-0.15493686 0.122218944 0.12532406 
0.109763004 -0.0077963807 0.1875 
0.3426196 -0.09888702 0.17722599 
0.02730795 0.09171844 0.1875 
0.19064155 -0.124721296 0.10767208 
0.375 0.11247545 -0.01616206 
-0.33282602 0.094390735 0.18621853 
0.08657335 -0.0882521 0.0625 
0.11636095 -0.07807175 0.13351534 
0.48567846 0.10091077 0.045704942 
-0.4933927 0.025257304 0.15266508 
-0.11892698 -0.038404163 0.11631196 
0.18605183 0.125 0.06927466 
-0.2711353 -0.08664089 0.15625 
0.23063877 -0.090283 0.1875 
-0.39652517 0.05219211 0.1875 
-0.13619213 0.021961723 0.15625 
-0.055223633 -0.08802323 0.1875 
-0.12084601 -0.0057154475 0.0625 
0.43489382 -0.12284644 -0.023011515 
0.11767762 -0.124561064 0.11043371 
0.45036095 0.013888001 0.18599842 
0.017335989 -0.043239824 0.09927083 
0.4897791 0.010888768 0.15897308 
0.41310105 0.035806656 -0.03269762 
-0.4098353 0.040329702 0.1875 
-0.27159113 0.0625 0.17712262 
-0.5 -0.07582404 0.1006802 
0.38132036 0.10181135 0.17137729 
-0.46510226 0.043320693 0.18093815 
0.07270371 -0.055797726 0.1875 
0.109182075 -0.10138328 0.0625 
0.29040772 0.09375 0.09141452 
-0.1465973 0.047261015 0.15625 
-0.47150317 -0.029491188 -0.09887603 
-0.08968279 -0.1092361 0.1565278 
0.26428536 0.11630588 0.14199331 
-0.38595203 -0.073434345 0.1875 
-0.18214251 -0.09375 0.09380101 
0.4217543 -0.09885617 0.17728765 
-0.36205608 0.12479573 0.10638007 
0.34375 0.018429609 0.11230818 
0.14917186 -0.05721 0.15625 
-0.03141064 -0.07452941 0.0625 
-0.43868032 0.12202876 0.120195 
0.42440233 0.12447584 0.0051526558 
-0.375 -0.0014749962 0.012913709 
-0.08149288 -0.007537875 0.0625 
0.12997921 -0.077553086 0.15625 
-0.375 -0.0987748 0.0009812816 
0.44869697 -0.030925326 -0.09762655 
0.055607993 -0.125 0.093236044 
0.37511823 -0.125 0.08346637 
0.13874637 0.11679311 0.14085896 
-0.04282878 0.018693382 0.112153806 
-0.19572616 -0.09392354 0.18715292 
0.4868473 -0.068193994 -0.13594735 
0.49260342 0.04162138 -0.041234195 
-0.375 0.035854116 -0.13245651 
-0.35682845 0.12199669 0.05940136 
0.25349468 0.10861268 0.15777466 
-0.28335986 -0.07218069 0.15625 
-0.375 0.10357209 -0.011517527 
0.14073081 -0.07693113 0.15625 
-0.44505116 -0.03444215 -0.17749168 
0.18788373 0.12149091 0.1277657 
-0.33177823 -0.12498278 0.10316531 
-0.4225143 -0.12458538 0.017954405 
0.43780655 -0.028775092 -0.18122466 
0.111927785 -0.077080235 0.1875 
0.2499106 0.125 0.08839356 
-0.48758322 0.044492844 0.16209288 
-0.49563706 -0.091447644 -0.09124103 
0.28431916 0.125 0.0717719 
0.5 -0.0006299893 0.12014801 
-0.018917607 -0.045974124 0.0625 
-0.31748933 -0.092736386 0.097521424 
0.30579746 0.125 0.06382407 
-0.48082078 0.099574275 0.1512956 
-0.32520685 0.124072015 0.0625 
0.5 0.07316978 -0.08023711 
0.19507447 0.125 0.088678814 
-0.45654604 0.010422578 -0.17732936 
-0.40983525 -0.018198736 0.1875 
-0.20916604 -0.08742318 0.1875 
-0.375 -0.036856268 -0.15389019 
0.41561034 -0.12498576 0.08106265 
0.1791985 -0.0939023 0.1871954 
0.46497533 -0.05276667 0.18109752 
-0.5 -0.051092613 -0.09950534 
0.15160444 -0.09375 0.07382066 
-0.123380005 -0.0865442 0.13407987 
-0.5 -0.066376515 -0.030573575 
0.13297126 -0.040886357 0.15625 
0.4836711 -0.08401031 -0.120127164 
-0.5 -0.03361111 0.0016972566 
0.42927614 0.12383258 0.029224923 
-0.1524056 -0.006359535 0.15625 
0.47438595 0.106557034 0.046754215 
-0.375 -0.06428996 0.03159198 
0.23515701 0.09964545 0.0625 
0.2021596 0.12269747 0.123238675 
0.375 -0.008758674 -0.13694556 
0.4384815 0.045260552 -0.051448982 
-0.47504872 0.08193066 -0.13004112 
0.39817715 -0.10154845 -0.13534282 
-0.5 -0.081597075 -0.08942141 
-0.5 -0.05175758 -0.032276668 
0.16111384 0.09375 0.09953366 
-0.11531593 0.04812837 0.14372754 
-0.17301685 0.11746973 0.13928367 
0.4463795 0.056523867 0.18684088 
-0.3408323 -0.055646908 0.1875 
-0.23392911 -0.08432276 0.1875 
0.15139349 -0.038583536 0.17639028 
-0.45962223 -0.1139389 0.0499666 
-0.375 -0.11828703 0.011031562 
0.34634653 0.12281155 0.06223816 
-0.23124743 0.104801685 0.16539665 
-0.28204572 0.09375 0.07579612 
-0.0423024 -0.019909354 0.069311395 
-0.5 0.047834266 -0.0884116 
-0.0069639627 0.10216205 0.17067592 
-0.5 -0.012872862 0.103903286 
0.09756833 -0.07781974 0.1875 
-0.18304205 -0.12138743 0.12811275 
0.43091214 -0.120690934 0.13063559 
-0.49992204 -0.017316122 -0.105917946 
0.43955663 0.044745855 0.18733421 
-0.14983685 0.044256303 0.18429437 
0.375 0.09791365 0.049378384 
0.18443519 -0.11438634 0.0625 
-0.41273686 -0.01663325 -0.106201746 
-0.25926185 -0.09375 0.12443259 
-0.31651717 0.115653194 0.1435129 
-0.375 0.07586057 -0.111912146 
-0.4066303 -0.125 -0.039778683 
0.34375 0.025250146 0.123854056 
-0.009590585 0.10233638 0.0625 
-0.5 0.032772 0.0011951468 
-0.375 0.031063695 -0.010253482 
0.12845196 -0.042001862 0.15625 
0.40663445 0.03317655 0.1875 
-0.41692218 -0.0045939246 0.1875 
0.22190392 -0.09375 0.113317564 
-0.44715598 -0.11940199 0.12252866 
0.32645628 0.12491898 0.104264915 
-0.37223813 0.125 0.05860632 
-0.34267256 0.06894668 0.14713608 
0.5 -0.038112197 -0.09289881 
-0.4465725 0.017858513 0.18673432 
-0.5 -0.06439943 0.085858725 
0.38725615 0.125 0.080264024 
0.035460755 -0.046982825 0.1875 
0.49929535 0.011680433 0.13328415 
0.030008478 0.10263733 0.0625 
-0.06674119 0.030958889 0.0625 
0.035742484 -0.058370728 0.0625 
-0.375 -0.07660526 -0.020535408 
0.4397996 -0.03934546 -0.0876516 
-0.49638146 0.013298469 0.14577183 
0.35804367 0.094087124 0.18682575 
0.4291923 -0.12384742 0.045731828 
-0.4464854 -0.04660958 -0.05821109 
-0.22851786 0.125 0.08205512 
0.3328061 -0.052472904 0.1875 
0.32848734 0.08869502 0.10580267 
0.041032683 0.022341954 0.103212155 
0.14606963 -0.09375 0.11512467 
-0.41646785 -0.12402624 -0.07689275 
-0.5 0.026940439 0.070831634 
-0.14870721 -0.027032092 0.1875 
0.375 -0.10891051 -0.050771788 
0.49806535 -0.094717324 -0.0040290672 
0.10819577 0.10089146 0.17321709 
-0.48458079 0.101459615 0.05846555 
0.109187566 0.0062905783 0.0625 
0.18486203 -0.09375 0.123564154 
-0.10651147 -0.0418842 0.0625 
0.44825986 -0.10971648 -0.10826735 
0.34375 0.041863054 0.118039615 
-0.23902035 0.09375 0.093345866 
0.45841736 0.10198016 -0.11461189 
-0.11790054 0.08063556 0.063662544 
-0.48276824 -0.10236588 0.032720666 
-0.5 -0.026300455 -0.15209658 
0.043419465 0.017101418 0.107281104 
-0.17452535 0.09375 0.08937862 
0.29188302 0.125 0.08733262 
-0.0448935 -0.12452753 0.111011714 
0.38899678 0.023413718 -0.18522578 
0.48570794 -0.10089604 -0.008687109 
0.4783481 -0.10309842 0.14066194 
0.49711716 0.09519143 0.025691938 
0.375 0.11165872 -0.002301244 
0.48197794 -0.08491446 -0.120283954 
0.49940696 0.07025013 0.13242298 
-0.5 0.060625106 -0.041059047 
-0.47510526 -0.041376047 -0.040663473 
0.073765 -0.059339926 0.0625 
-0.14302722 0.06274953 0.15625 
-0.5 -0.0007682749 0.058744937 
0.375 0.052247714 -0.040828418 
-0.117762715 0.080486104 0.084109105 
-0.077418454 0.0622238 0.0625 
0.384441 -0.125 -0.061057057 
0.16272445 -0.0969181 0.1811638 
0.15906598 0.07306175 0.1875 
0.31134486 0.038588863 0.16357638 
-0.24221519 -0.09375 0.14534438 
0.4699972 0.10875141 0.0386941 
0.14823164 -0.09375 0.12534332 
0.023751896 0.040378504 0.08395485 
0.026406068 -0.125 0.09265549 
0.375 0.07709837 0.05305577 
0.120194346 0.08327403 0.10872671 
-0.098965846 0.020771917 0.1875 
0.5 0.053166635 0.109690554 
-0.5 0.01448632 0.07705873 
0.4150694 0.046687268 -0.059523482 
0.21692386 0.09375 0.119318515 
-0.071878046 -0.1237012 0.117524035 
0.19932064 0.09375 0.12168324 
0.04513515 -0.012194096 0.1382083 
0.31987762 0.08023633 0.1875 
-0.5 -0.041782033 0.042839613 
-0.49426275 0.04363079 -0.045773834 
0.063489065 -0.067288965 0.0625 
-0.3462027 -0.0376299 0.1875 
0.24455844 0.095091 0.184818 
-0.45392537 -0.11654983 0.008478328 
-0.12863661 -0.11907834 0.13553853 
-0.25625053 -0.09210269 0.15625 
0.382922 -0.04380628 -0.17947868 
-0.5 0.08720068 -0.070167765 
-0.437183 0.013962364 -0.018057147 
0.21668567 -0.09375 0.08752229 
0.00617364 0.11071204 0.15357593 
0.375 -0.014148853 0.07658777 
0.38144344 0.12397803 -0.07806395 
0.3837426 -0.046742287 -0.06350109 
-0.46297258 -0.11012692 0.14034288 
0.25394547 0.08140375 0.15625 
0.14921999 -0.048636056 0.15764216 
-0.18242864 0.09593975 0.0625 
0.29751468 -0.0741797 0.1875 
0.47475043 -0.037050053 -0.16219354 
0.06354624 -0.099176966 0.0625 
0.31841478 -0.092565194 0.14562066 
0.25639427 -0.104497544 0.16600491 
0.054172236 -0.08745899 0.1875 
-0.5 -0.06701386 -0.094644904 
-0.3272358 -0.09800691 0.17898619 
0.32941803 -0.088507265 0.12407775 
-0.20598586 -0.09375 0.08182757 
0.18182194 -0.09375 0.106254265 
-0.4358103 0.1195134 0.13428937 
-0.42629603 0.05133184 -0.17563796 
0.4508879 -0.061513506 0.18595596 
-0.375 -0.034308154 -0.015581452 
-0.012302043 0.0927728 0.0625 
0.1961645 0.09375 0.15024017 
0.47878838 0.100460626 0.15152559 
0.10434132 0.009344292 0.1875 
-0.0601293 0.124395005 0.11329578 
-0.053555723 -0.025301293 0.0625 
-0.3790958 -0.0036099602 0.1875 
0.31765243 0.059390455 0.1875 
-0.40845168 0.07386075 -0.16327944 
0.5 -0.064302646 -0.10790261 
-0.43341818 0.10888095 0.15723811 
0.44457412 0.013112276 -0.10736947 
-0.49297166 0.04267857 -0.14986439 
-0.43496343 0.046843275 0.1875 
0.13555947 0.050801463 0.1875 
0.33750576 -0.0352209 0.1875 
0.19483827 0.12266498 0.12342365 
0.093646206 0.05651753 0.0625 
0.32077977 0.082178175 0.1875 
-0.181116 0.125 0.07520524 
0.18366 -0.09375 0.14764419 
-0.042423997 -0.019678473 0.08889948 
-0.41923746 -0.04682052 -0.06369752 
-0.07613833 0.10787639 0.0625 
-0.03496027 -0.07222561 0.0625 
0.19093174 -0.10795943 0.15908116 
-0.43592128 0.018893048 0.1875 
0.1491982 -0.022051822 0.1875 
0.375 0.0003275006 -0.15514441 
0.5 0.01756879 -0.015502312 
0.375 0.08600989 -0.051023755 
0.45089945 -0.11784902 -0.018044313 
-0.375 0.06337149 -0.10496705 
0.14616665 -0.125 0.07034379 
