0.1300109 0.36688206 -0.23373143 
-0.12841548 0.20723039 -0.33325806 
-0.18378334 -0.164039 -0.21334846 
0.4698618 0.18691356 0.20013508 
-0.06295621 -0.20203961 -0.50051606 
0.0914816 -0.1056786 -0.19247194 
0.0049488177 0.3105079 -0.07661498 
0.50841385 0.23700069 0.15007794 
0.03916245 0.20723148 0.28500205 
0.32114783 0.1508076 -0.14007314 
-0.07294826 0.29409564 -0.011084145 
0.08752576 0.50306666 -0.0107681025 
0.3634139 -0.099901 0.1835095 
0.37611505 0.37861684 -0.33281708 
0.4425059 0.0427212 -0.026294854 
-0.024115343 -0.09965088 -0.16853508 
0.185816 0.027120274 -0.37111315 
-0.1693562 -0.12128797 -0.24101739 
0.1648605 -0.14079104 0.26847148 
0.33132794 0.07280028 0.407559 
0.3266969 0.40115786 -0.2872727 
-0.026427632 0.10595149 -0.47361296 
0.1084214 0.07836495 0.35145223 
-0.057320304 0.145467 0.23322865 
0.43246564 0.03330306 -0.04065468 
0.04306443 -0.12337316 -0.09031799 
-0.26856592 -0.14745726 -0.26115057 
-0.20858346 -0.037264355 -0.31708553 
-0.014080836 -0.12075042 0.0019037053 
0.49692926 0.2817628 -0.11852254 
0.070918776 0.4347722 0.16856623 
0.114725485 -0.09044027 -0.3366763 
0.39928222 -0.00016186293 0.24630891 
-0.034097355 -0.110316806 0.10888474 
0.007702137 0.3390944 -0.11577684 
-0.10208479 0.071003914 0.046200916 
0.100336544 0.47922003 -0.034767404 
0.117381655 0.27976683 -0.37166685 
-0.03573668 -0.08498797 0.17362623 
0.32395726 0.31091866 -0.30654266 
0.047184426 0.33022267 -0.06935785 
0.4800197 0.11500461 -0.030174693 
-0.055701487 0.17907798 -0.42186117 
0.13593064 -0.06770351 -0.25012282 
0.10714036 0.3497609 -0.23547345 
-0.07642847 0.10837228 0.14902249 
0.497854 0.16667297 -0.0282237 
-0.1706605 -0.047005106 -0.45072746 
-0.13233197 -0.21865508 -0.17882903 
-0.041450765 -0.11514418 0.049758006 
-0.14563988 -0.15576392 -0.20143585 
-0.25900066 -0.33396143 -0.038191307 
0.4598207 0.03144134 0.084879994 
0.39166045 0.30436116 -0.2034193 
0.12979834 0.46333742 0.080839165 
0.2074576 0.39679408 0.17351814 
-0.4774861 -0.08204165 -0.18272482 
0.3964974 0.34455702 0.13619028 
0.47536138 0.30251616 0.03753354 
0.4528141 0.2325938 -0.16645637 
0.23581506 -0.17716263 0.0939708 
0.20021138 0.463633 -0.30748445 
0.43436542 -0.042431302 0.086715996 
-0.5567536 -0.19657132 -0.26105314 
-0.18837899 -0.18551224 -0.172753 
0.38747707 -0.014924939 0.25265008 
-0.18108512 -0.046506796 -0.42075083 
0.38457105 0.31156984 -0.20575616 
0.47744805 0.06660781 0.09320505 
-0.114691615 -0.07546022 -0.5036433 
-0.10370276 -0.24413016 -0.27228191 
0.023564275 0.07960389 -0.4816932 
0.36076117 -0.08952643 -0.030910788 
0.23027201 -0.17298818 0.21964695 
-0.10087809 -0.075554885 -0.50851274 
0.44643667 0.13267833 0.35119873 
-0.20073257 -0.1823356 -0.21811573 
0.11310265 0.36452627 0.29605943 
-0.20039263 -0.1498649 -0.45383218 
-0.23946193 -0.32405573 -0.15679397 
0.3684263 0.07815418 0.43061393 
-0.07858099 -0.16620047 -0.24138446 
0.15470855 0.055773713 -0.43583217 
0.41742036 0.092709415 0.28883865 
0.19350146 -0.1276126 0.2858147 
0.03954755 -0.13118838 0.21796164 
0.055966478 0.040823348 -0.46154663 
-0.10305771 0.20934546 0.18404415 
-0.13056234 0.22668199 -0.259332 
-0.110723265 0.18408437 -0.38026738 
0.021937352 0.38245094 0.17009467 
0.4566395 0.19926648 0.25682822 
-0.48599553 -0.12707277 -0.18794034 
0.42378986 -0.03637912 -0.013854289 
-0.12221287 0.18788423 0.015530336 
0.11567703 -0.13806815 -0.09613626 
0.13804631 -0.22084369 0.13154721 
0.25509033 -0.059177402 -0.13297307 
0.22292894 0.02391062 0.3636578 
0.031062797 0.5311815 -0.010774562 
0.4030653 0.33313182 0.11887113 
0.4465389 0.0730818 0.22960845 
-0.0855446 0.299023 -0.25353557 
-0.15191 0.0006985528 -0.19986123 
0.29798573 0.14348753 -0.22730978 
0.08930447 0.4121107 0.20014118 
-0.024692718 -0.18681355 -0.28197566 
0.27300632 0.10746137 -0.24810362 
0.11973872 0.2790702 0.3396209 
0.2975329 0.103371665 0.4215534 
-0.125776 -0.16449408 -0.20140444 
-0.15116316 -0.21947388 -0.103298515 
0.05810462 0.48195887 0.069012515 
0.1944248 -0.08529552 0.3186326 
-0.10130934 0.27766636 -0.29729456 
0.09738306 0.22444358 -0.42423517 
-0.11617311 0.15140803 -0.059492268 
0.12671359 0.079902485 0.3827097 
0.24839337 0.37757176 0.28057215 
0.3361554 0.27253857 0.39915398 
0.46531877 0.15128276 0.3345523 
-0.19501588 -0.27211472 0.020186715 
-0.02285134 -0.23725921 -0.43040058 
-0.17562935 -0.024145423 -0.4449431 
0.31188586 -0.096721016 0.28653428 
-0.02324361 -0.121171966 0.03011477 
0.35916665 0.08482796 -0.15621747 
0.087509416 -0.19395754 0.17325336 
0.26458177 0.13743603 0.3869653 
0.22594427 -0.13969918 -0.08323333 
0.11333236 0.46742478 -0.0625823 
0.50145626 0.278114 0.13693859 
0.34191123 0.3427851 0.3016055 
-0.21425766 -0.016431082 -0.41026986 
-0.15306142 0.06832185 -0.29182503 
0.29723552 0.08780273 0.43046907 
0.16332999 0.31978917 -0.24116331 
-0.13200389 0.22331677 -0.27512586 
-0.019894665 0.021238923 0.22713853 
0.37557364 0.13053115 -0.107945085 
-0.5314557 -0.07666828 -0.16373004 
-0.45592734 -0.17896084 -0.24330013 
0.22098775 0.03619181 -0.3058516 
0.11091148 0.43519968 0.18783946 
-0.09402394 0.0056959516 -0.0075665493 
-0.21874836 -0.05151013 -0.33981228 
0.3677795 0.35162374 0.118865736 
-0.12985705 -0.036740758 -0.15883891 
-0.1581093 -0.2387393 -0.12926778 
0.49262097 0.13188724 0.11353899 
0.19022882 0.16974667 -0.4095065 
0.3999578 0.00330232 0.25449798 
-0.06065689 -0.06441773 -0.057231095 
0.33570373 0.16824774 -0.16816224 
0.3888698 0.34006935 -0.24408776 
0.10087046 0.49014693 -0.2851076 
0.39563853 0.30263302 -0.20727421 
0.39923665 -0.06354431 0.15022893 
0.4804705 0.2497714 -0.12562133 
0.23160893 -0.09881345 -0.12835854 
-0.06966558 0.32139292 0.013106248 
-0.0728996 0.24010728 -0.07936299 
0.47534177 0.30148336 0.039479923 
0.38641548 0.3658572 -0.17996459 
-0.09617898 -0.2172283 -0.49412158 
-0.022906583 -0.09560659 -0.079508334 
-0.11019968 -0.2262906 -0.26160672 
0.4653356 0.14394033 0.2486588 
0.14258902 0.50176144 -0.22867483 
0.10473934 0.4854695 -0.061673086 
0.31480536 -0.08649338 -0.026939247 
-0.49864545 -0.1904007 -0.25659582 
0.18947484 0.0042304453 0.36512542 
0.17887199 0.30272534 0.33764473 
-0.16034152 0.06325127 -0.22136188 
0.18291584 -0.19711848 0.03729135 
0.1563462 0.12955599 0.35060155 
0.45728454 0.21333912 0.24574888 
-0.15049201 -0.09277041 -0.48738417 
0.00874037 -0.15530294 0.035481572 
0.062076263 -0.07288145 0.29408464 
-0.5997782 -0.16790868 -0.15468998 
0.3265795 -0.12666781 0.15953821 
0.3201217 -0.023535648 0.3228124 
0.07664694 -0.10733366 -0.5549986 
0.08627412 0.3821136 -0.05110127 
-0.15859409 0.093211524 -0.26314375 
0.30355847 0.31633812 0.35331818 
0.19953403 -0.023931198 -0.27550742 
-0.22055154 -0.048202302 -0.41746238 
0.24822214 0.3835794 0.11678864 
-0.21898624 -0.22087865 -0.09382292 
0.41937006 0.026150448 0.18833506 
0.017296415 -0.15253204 -0.538512 
0.03772822 -0.1756464 0.14560361 
0.075929806 0.46117124 -0.22852899 
0.2511382 0.22057882 0.3904211 
0.45100856 0.11251009 0.36874226 
-0.19855164 -0.23390613 -0.28133973 
0.3633163 0.2016561 0.4602727 
-0.032531403 -0.06557672 -0.5187509 
0.27532223 0.118343145 -0.28108522 
0.25529304 0.12935162 -0.2767162 
0.26420763 0.37060782 0.2813657 
-0.09116458 0.12982538 0.04946442 
0.2664094 -0.076724395 -0.08255113 
0.12031484 0.48200387 0.09575058 
0.10302936 0.27340725 0.31053668 
0.20775874 -0.015395412 -0.26325646 
0.021725828 -0.1467209 0.18681255 
0.12674178 0.3046165 -0.30993834 
0.36592653 0.31860828 0.32270357 
-0.038310897 0.28882986 -0.120172486 
-0.0120429825 0.33834845 -0.20669617 
0.47737744 0.25191656 0.19021744 
0.19599506 0.46143964 -0.10835261 
0.17034635 -0.19996287 0.02545198 
0.17150727 0.18385752 -0.42155898 
-0.5911459 -0.13111448 -0.14769123 
0.05778774 -0.15645383 -0.54005224 
0.253482 0.21598193 0.36781096 
-0.43146193 -0.15105702 -0.22043914 
0.2586086 -0.17873158 0.09395261 
-0.19577843 -0.17692824 -0.2531292 
0.24172217 0.027795037 -0.23831904 
0.3371448 0.3465488 -0.009005536 
0.2933025 0.10152141 0.39459035 
0.3943001 0.32793248 0.25032607 
0.46456993 0.15806448 0.22290923 
-0.28210276 -0.35189795 0.0028434005 
-0.3959995 -0.06285242 -0.23978408 
0.16979231 0.09967033 0.37558246 
-0.15409967 0.07799761 -0.27545378 
0.09261594 -0.106914595 -0.19097129 
0.39641902 0.08898893 0.32018426 
0.2586694 0.43997216 -0.19395594 
0.19182442 0.29016516 -0.24973372 
0.055915765 -0.19680716 -0.400333 
-0.025788402 0.23110206 -0.42041704 
0.19595613 0.40244374 0.15961513 
0.46186677 0.23430718 0.27056363 
0.18878031 -0.20378391 0.07292986 
0.12965061 0.5067477 -0.22270696 
-0.1297454 0.006427489 -0.12731454 
0.3530209 -0.032154113 0.28555655 
-0.045320936 -0.15880074 -0.26313984 
-0.13674511 -0.12709166 -0.50685877 
0.010620551 0.33738002 -0.24504232 
0.37345275 0.1812804 0.43357512 
-0.3679808 -0.08941899 -0.22208726 
-0.06995032 0.2741015 0.18255909 
-0.57413036 -0.1973417 -0.23292854 
0.1404082 -0.03590264 -0.48413187 
-0.028585797 -0.19641137 -0.5147459 
0.03647931 -0.233748 -0.4479845 
-0.008794123 -0.13221996 0.00287457 
0.3144302 0.22433218 -0.22161086 
-0.16346963 -0.19764458 -0.16317192 
-0.548206 -0.10130913 -0.1529651 
-0.058645677 0.3002516 -0.15747517 
-0.11685413 -0.2251818 -0.24072279 
0.3006553 -0.08070466 -0.030006038 
0.24847002 -0.078327715 0.3017867 
0.021354023 -0.21814492 -0.49062002 
0.32574382 -0.024212308 -0.14997831 
-0.14789778 -0.21985948 -0.37078014 
0.45097682 0.023609417 -0.031992175 
-0.08247914 -0.04812237 -0.09118296 
0.033186786 -0.1546547 -0.5300268 
-0.120065585 -0.052338872 -0.17139828 
-0.038984906 0.13206899 -0.479647 
0.17896815 0.44747242 -0.122414015 
0.12346309 0.41455436 0.23451452 
-0.023920473 -0.10687541 0.015642732 
-0.30039027 -0.3731634 0.0009374958 
0.1283824 -0.20423649 0.050464 
-0.02209554 0.29259667 -0.35996035 
0.4874423 0.23448153 -0.011294326 
-0.37641233 -0.12641034 -0.29097983 
-0.13778727 -0.12664126 -0.50854814 
0.018424837 0.301078 0.23355986 
-0.20958152 -0.3301974 -0.14631274 
-0.28872803 -0.32579282 0.056486264 
-0.037374157 0.19959831 -0.4522777 
0.3899191 0.3344012 0.19990787 
0.49790573 0.14558756 0.10200222 
-0.542625 -0.15292533 -0.24855472 
0.3853334 0.36238766 -0.16026424 
-0.56588274 -0.19872451 -0.23605546 
-0.30860287 -0.1626634 -0.27316046 
0.25549012 -0.11037669 -0.094106264 
-0.36539373 -0.07067937 -0.23244311 
-0.043866582 0.013309945 -0.5142403 
0.35002157 0.14957 0.451491 
0.0917462 0.48600984 -0.030391455 
0.04105001 -0.18041316 0.085981876 
-0.13596909 0.017085008 -0.11169944 
0.29201812 0.36704215 0.071037024 
-0.0564168 0.31445554 -0.21159282 
0.14719087 -0.06861868 -0.21912558 
0.39073128 0.07826785 0.34523156 
0.49094573 0.13768475 -0.040781222 
0.06389333 0.35586074 -0.09399496 
0.18372147 0.436258 0.24128866 
0.39360476 0.19413444 0.4533915 
0.2699898 0.38510418 -0.33397093 
0.009575605 0.10298224 0.325743 
0.022586808 -0.12662137 -0.04926287 
0.26317316 0.16246654 0.40948543 
0.35982507 0.15303037 -0.1329518 
-0.19608608 -0.039114624 -0.42587143 
0.1180936 -0.16507839 -0.49766895 
-0.32794923 -0.3546305 0.0062547894 
0.17502563 0.31523073 -0.23689835 
0.09273092 0.4786587 -0.002326811 
-0.13683587 -0.0076830755 -0.12523587 
0.28082988 -0.01987912 0.33406556 
-0.07185627 -0.08509668 -0.17200983 
0.050934073 0.3618688 -0.04810544 
-0.09557849 -0.026333353 -0.07048297 
-0.4010295 -0.13594733 -0.20828818 
0.22280964 -0.17952287 0.007018227 
0.4172317 0.072255746 0.38313353 
0.45267045 0.15326719 0.27634305 
0.41436177 0.31563503 -0.12682639 
-0.09417229 -0.14329061 -0.21534692 
-0.21840319 -0.2957583 -0.10145756 
0.10797733 0.22272196 0.35077703 
0.17694895 0.15295583 0.38210866 
-0.10788765 0.18564948 -0.035305593 
0.2941936 0.17520507 -0.24944374 
-0.033971757 -0.26228738 -0.40857488 
-0.05741943 -0.064996585 -0.057030156 
-0.10891122 0.11738129 0.026329534 
0.13021603 0.5096588 -0.25965098 
-0.06172284 -0.05674626 0.0851152 
-0.059925698 -0.25683066 -0.40790662 
0.10866521 0.15959604 0.33090204 
-0.32179824 -0.1923352 -0.31767038 
0.35281268 0.3395845 -0.33480108 
-0.022668405 0.03587428 -0.44225508 
0.47993952 0.30237785 -0.056769423 
0.24987748 0.3917703 0.1598555 
0.24157341 0.13888687 -0.35950544 
-0.19312432 -0.29181504 -0.23890907 
0.20445153 0.3427071 -0.19383961 
0.44581583 0.2683098 0.30703077 
0.43086213 -0.041158576 -0.008813476 
0.19284685 0.40946257 0.095962346 
-0.3332624 -0.36542317 0.013996411 
0.36101377 0.34134907 0.20176913 
-0.08865815 -0.09341967 -0.5132381 
0.10953419 0.48647738 -0.1425313 
-0.013159031 0.08957618 0.25193948 
-0.018018372 -0.18573213 -0.27966574 
0.3307969 0.35323274 0.24241638 
0.038077164 -0.14309111 -0.54511935 
0.007363055 -0.2525294 -0.40626022 
-0.1900871 -0.28518632 -0.033687804 
0.42208084 0.0024110796 0.17937002 
0.08027406 -0.023346864 -0.5418514 
0.5058103 0.27509934 0.011034908 
0.22505741 -0.12895726 0.28175998 
0.34569877 -0.022384921 0.31343046 
-0.08610186 -0.01366879 0.0117667485 
0.3237931 0.36215132 0.09894226 
0.34172165 0.289081 -0.23522821 
-0.11209007 -0.24687567 -0.3883689 
0.36241314 0.3536052 -0.03864509 
0.4571678 0.1006411 0.25516883 
0.05074066 0.42374626 0.14322765 
0.06974587 0.49954507 0.05824287 
0.05950206 0.4085071 0.1792619 
0.0009528737 -0.22017817 -0.49143013 
0.07335229 0.39941087 -0.09039445 
-0.35452938 -0.20237009 -0.30049327 
0.3697532 0.05964388 0.39013407 
0.003564437 0.4021946 0.049354956 
0.22776015 0.3719616 0.08575783 
0.21700981 0.3700283 0.28115052 
0.34849215 0.33328396 0.010793266 
0.06795561 -0.065555625 0.3086582 
-0.104614906 0.21659365 -0.17516215 
0.403071 0.025820946 -0.12473543 
0.053046897 0.0024452088 -0.48678133 
0.25291756 0.419029 -0.071568005 
-0.019937046 0.17432863 -0.45255715 
0.2112264 0.37264132 -0.25276878 
0.108857796 0.3499265 0.27250347 
0.02108895 -0.164488 0.121582925 
0.15455404 0.47039637 -0.1044389 
-0.5407399 -0.16096097 -0.16535807 
0.04039651 0.21873526 0.29027352 
-0.1275751 0.25665283 -0.24781175 
0.018807018 0.528997 -0.0041279444 
0.104625076 0.4521186 0.14547725 
0.2722841 -0.17216402 0.12442389 
0.43128878 0.3107456 0.12314499 
0.36012664 -0.08612581 0.2219501 
0.03072203 0.33561048 -0.24967308 
0.048730765 -0.10120246 0.26278597 
0.4252171 0.028975263 0.2160813 
-0.1491954 0.120573714 -0.13299517 
0.2361944 0.23514926 -0.33809614 
0.12740847 0.45590445 0.19672179 
-0.12499598 0.1815738 0.09626508 
0.029072307 -0.1719754 -0.3285223 
0.3027869 0.36562967 0.21464856 
-0.19189282 -0.17595899 -0.23535883 
0.3445956 0.05140199 -0.16173477 
0.4922904 0.30601943 -0.12158545 
0.20855589 0.25082117 -0.32521778 
0.41980046 0.28475124 0.28563657 
-0.17769375 0.04404642 -0.34033933 
0.48765823 0.19323534 -0.01850584 
-0.06673273 -0.09233733 -0.19400126 
0.00026933447 -0.03668844 0.24923077 
0.51034594 0.26585668 0.07019653 
-0.0075117657 0.015384227 0.274713 
0.3212523 0.11932204 -0.1540016 
0.44588742 0.30214876 -0.036532078 
0.103320524 0.3530872 -0.23292142 
0.40650234 0.3058755 0.25967145 
0.12377699 -0.039966483 -0.341993 
-0.09865144 0.14762451 0.030916443 
0.40057272 -0.07163458 0.14847986 
0.032283373 0.43459287 0.059460763 
-0.51659954 -0.17860167 -0.2838326 
0.23294984 0.062901966 -0.31133226 
0.15755488 0.40648514 -0.2607327 
-0.23862033 -0.29370233 -0.17965059 
0.03125639 -0.2243539 -0.4683319 
0.49031216 0.095761664 0.072052136 
0.3538305 0.19738054 -0.13028002 
0.38722098 -0.021960864 -0.11880848 
-0.062496025 0.308813 -0.18689458 
-0.5730853 -0.17318238 -0.27164754 
0.25203425 0.2726733 -0.25962076 
0.475595 0.24722023 -0.044482507 
-0.17308192 -0.27554202 -0.2211 
-0.1338323 0.18503617 0.028846078 
0.26573762 0.08021396 -0.25749713 
-0.27934644 -0.10128449 -0.35089225 
-0.14270248 0.20138326 -0.28905025 
0.186107 0.13300255 -0.4231759 
0.024096787 0.45868933 -0.027757894 
0.10507313 -0.105687775 -0.5212594 
-0.11716814 -0.21819298 -0.4834696 
0.17797847 0.37637588 0.30699795 
0.3987901 0.31824365 -0.015881188 
-0.33748472 -0.35476682 0.06639305 
0.37637132 0.31988123 0.32235816 
0.07528056 -0.17343196 -0.40517733 
0.47586346 0.314368 -0.114841126 
-0.5140924 -0.13808344 -0.1752005 
0.34830135 0.3424059 -0.33968908 
0.02049734 0.29469642 -0.36905825 
0.23916005 -0.012904587 -0.19311613 
-0.028706063 0.27678666 -0.38238657 
-0.5292392 -0.10771598 -0.19872302 
0.2960652 0.042440195 0.34909764 
0.35158035 0.0005671913 -0.14000186 
-0.021050015 0.1733128 -0.45238382 
0.41955885 -0.012786304 0.20268933 
-0.05853285 0.34647474 0.0049863663 
0.21844627 0.3960511 0.04928799 
-0.38538492 -0.15043265 -0.3355601 
-0.09547101 -0.035840034 -0.09127731 
0.35643438 -0.06795098 -0.045206644 
0.43051547 0.13585319 0.40235594 
-0.029631652 -0.21294789 -0.48828408 
0.353444 -0.052717082 -0.10741262 
0.06118833 -0.16286066 -0.36208808 
-0.1269798 -0.17937529 -0.18799287 
-0.122441575 -0.1728133 -0.21759035 
0.3263295 0.19470184 0.45034635 
0.08279665 0.22916031 -0.43694723 
0.37703958 -0.021538386 -0.1288888 
0.035742007 -0.17937273 -0.31117696 
0.067642465 0.10409619 -0.4694357 
0.086094886 -0.13274528 -0.31930983 
0.3137183 0.19533536 0.4485877 
0.031186124 -0.10511215 0.22887832 
0.31507534 0.16406305 -0.15653157 
0.19749995 -0.10264355 0.3005849 
0.056813642 -0.0006973763 -0.5050167 
0.32187942 0.20722659 -0.24403106 
0.2911589 0.2763207 -0.25568482 
0.062951766 0.36072382 -0.2042499 
0.022776606 0.08496942 -0.47297376 
-0.010201745 -0.089549005 -0.53794855 
0.20121981 0.08743956 0.37354964 
0.14082155 -0.10779394 -0.42312756 
-0.06965607 -0.053472783 -0.022090126 
-0.03348364 -0.1288214 0.07668396 
-0.011922008 0.029066239 0.23933935 
0.47154108 0.13319905 0.1906139 
0.060961716 0.29951945 0.27367222 
0.15464923 0.44596714 0.1160739 
-0.06304959 0.21764828 0.20547178 
0.21472245 -0.03746356 0.34357983 
0.329687 0.35872963 0.06661118 
0.404078 -0.03545694 -0.059355944 
-0.11520777 0.15883932 0.16277549 
-0.06947447 0.016296385 0.14018972 
0.25604585 -0.18080787 0.16483967 
-0.2759373 -0.36481878 -0.031033557 
0.0603465 0.0142847905 -0.45585847 
0.46537256 0.24477951 0.20388919 
-0.39436764 -0.093980305 -0.21520336 
0.044428177 -0.11853281 -0.19817483 
0.023964021 -0.24244578 -0.42801565 
0.14900851 0.43041947 0.1602262 
0.17970257 0.38698182 0.28761142 
0.21629818 -0.03501391 -0.21869604 
0.22752263 0.0110823475 -0.25970617 
-0.04271838 0.24230374 0.21709482 
0.17217307 -0.044114575 -0.23473367 
-0.05126829 -0.089083165 -0.019706886 
0.12448456 -0.07233181 -0.5135571 
-0.06504927 0.09259466 -0.4399369 
0.4673981 0.022521228 0.08606419 
0.12529288 0.34952104 0.28087327 
0.3351944 0.36651957 0.09163456 
0.33978724 0.35794485 0.16802384 
-0.18648691 0.021600988 -0.4198026 
-0.5416894 -0.14281157 -0.25974247 
0.13922088 0.06545841 0.37371776 
-0.25573075 -0.3371809 -0.11808846 
-0.46821696 -0.09475715 -0.25274917 
0.18118005 0.2806952 0.3384506 
-0.08561196 -0.0073996847 -0.51221675 
0.33764112 0.2412856 -0.15206817 
0.2513512 0.44088513 -0.22257459 
0.035272222 -0.120541744 -0.11823286 
0.31131926 0.38326272 0.12528321 
0.30005658 0.36235368 0.04832566 
0.1560629 -0.115310974 -0.1332637 
0.36792895 0.25397655 0.40127003 
0.006013076 -0.24814893 -0.4478858 
0.3583444 -0.08179028 -0.10397523 
-0.21630223 -0.17160976 -0.36036927 
0.35825 -0.11539112 0.030835645 
0.03549493 -0.17160182 0.10418911 
-0.5785923 -0.12071333 -0.1533273 
0.17210463 0.21616055 0.35886535 
0.34379846 -0.0730255 0.25035903 
0.04507798 0.20625193 0.3095319 
-0.18835254 -0.29181743 -0.0021795784 
-0.11178242 0.2159308 -0.13157706 
0.0993006 0.3319061 0.3048825 
0.0658729 0.18277755 -0.45027715 
0.4727876 0.3002586 0.06780489 
-0.035905376 0.1624348 0.2287982 
0.24774522 0.079794094 0.3776991 
-0.5236641 -0.16795082 -0.19639009 
0.38710865 0.33617598 -0.120767325 
0.34899196 0.38308093 0.084948815 
0.49722925 0.20091385 0.06817644 
-0.16623528 0.09338103 -0.19819573 
0.14121613 -0.20941052 0.050040495 
0.29624695 0.2829106 -0.25212753 
0.3478188 0.29892796 0.36755386 
-0.42218825 -0.16424744 -0.2124637 
-0.057502702 -0.07326733 -0.018683223 
0.21142195 -0.11395736 -0.1321154 
0.45736992 0.30006585 -0.010082605 
-0.018494233 -0.13642383 0.025622377 
-0.26750258 -0.31707034 -0.08344673 
0.009903296 -0.065189205 -0.5378398 
0.06360737 0.32349703 0.26703262 
0.022143923 0.42054343 0.1090265 
0.03530635 -0.1699424 -0.29740366 
-0.20301323 -0.1727151 -0.24562539 
0.09182798 0.3679038 -0.22543573 
-0.023017563 0.030005567 -0.47774762 
-0.1965237 -0.03269307 -0.27735472 
-0.052418612 -0.18227251 -0.26945725 
-0.017549263 -0.1474829 -0.2313015 
-0.121457 -0.015690753 -0.49058947 
-0.13081716 0.26510057 0.06467349 
-0.29207435 -0.17828254 -0.33277443 
-0.42165637 -0.12004134 -0.29570377 
0.06182308 -0.10916296 -0.5505115 
-0.20763625 -0.2358273 -0.25458518 
-0.36320665 -0.14489211 -0.3386207 
0.037176553 -0.11854131 -0.11297885 
0.48313406 0.2599491 -0.15614413 
0.08304454 -0.1255245 -0.3256948 
-0.11499806 -0.05532963 -0.10450203 
0.06855092 -0.11833756 -0.27897462 
0.308281 0.38117117 0.15080386 
0.09964692 0.51350427 -0.16658206 
0.46531123 0.04640153 0.10667662 
0.32000628 0.39652535 -0.35446164 
0.4486973 0.056961846 0.15889582 
-0.31516778 -0.35239917 0.068985544 
0.31062886 0.41885108 -0.24723355 
0.41093916 0.22541456 0.39965683 
-0.19085218 -0.19729087 -0.29604238 
-0.19872141 -0.19578084 -0.30971375 
-0.061750554 0.2297975 0.21788166 
-0.01194584 0.2667951 0.23887978 
0.48428407 0.24161093 -0.046328235 
-0.5726884 -0.18188407 -0.18568784 
0.017342947 -0.13876776 -0.54565406 
0.09441511 0.49756053 0.082392946 
0.2995509 0.3090321 -0.2920068 
0.48955378 0.08559443 0.047386825 
0.34253386 0.27438638 -0.19906236 
-0.25897864 -0.31081647 0.049123943 
-0.21127936 -0.32446715 -0.15999839 
0.12845756 0.052417677 -0.43683094 
-0.21977277 -0.30430436 -0.16484424 
0.22477806 0.04216162 -0.2948508 
0.23891202 0.26184288 -0.264816 
0.10867701 -0.0543112 -0.34530514 
0.15864104 0.2958938 -0.32296127 
0.481995 0.31116834 -0.13849774 
-0.16612563 -0.27744913 -0.22693276 
0.27762353 0.13098061 0.40386108 
0.040716145 0.2955571 0.26638573 
-0.022079961 -0.09415969 0.20210469 
0.015068391 -0.05145689 -0.565499 
-0.014994679 0.36515564 0.14123648 
0.15953667 0.48384616 -0.24590848 
-0.08475447 0.29527515 -0.27052432 
0.07911945 -0.18706663 0.0029244125 
0.05967834 0.2501346 -0.4117778 
-0.106364824 -0.1790781 -0.22444364 
0.43127573 0.05110819 0.23793039 
-0.6018889 -0.19258024 -0.23632446 
0.33135664 0.26658732 -0.24270225 
0.44601336 0.043074284 0.18132639 
0.3200908 0.09729335 0.43733382 
-0.1519751 0.15351002 -0.23798218 
0.40568903 0.09074949 0.28919062 
0.3314978 0.060736675 0.4034992 
0.011677187 0.17677003 0.28907847 
0.40811536 0.04274322 0.26565707 
-0.0753174 -0.107196555 -0.19626036 
0.12926517 0.31553584 -0.28269488 
0.24973266 0.2678677 0.3475956 
0.20530032 -0.14621316 -0.07291245 
0.036246173 -0.08935005 -0.55021554 
-0.17468236 -0.21076038 -0.114383414 
-0.21167597 -0.17880818 -0.16398616 
0.35007122 0.35809124 -0.10395388 
0.2252227 0.4010345 -0.035996385 
-0.15108974 0.1328838 -0.2959822 
0.014322 -0.1227577 -0.16596867 
0.10115351 0.1755816 0.3195034 
-0.0782009 0.105266854 0.12402699 
0.0866283 0.15349837 0.34649375 
-0.31644142 -0.09258564 -0.3147599 
0.5002726 0.23235133 0.07869248 
0.37747398 0.34427884 -0.14572823 
0.329538 -0.002499237 0.31722334 
0.1706174 -0.15832943 -0.08005142 
-0.035782296 -0.25614756 -0.43509048 
0.38016403 0.31473017 0.014127327 
0.44374964 0.036529917 0.13177207 
0.25203186 0.30219826 -0.26409584 
-0.26740232 -0.08583562 -0.31660256 
-0.040923085 0.30805185 -0.16978033 
-0.02991775 -0.10650781 -0.08540574 
0.12378634 0.29725677 0.3187104 
0.049824983 -0.1530766 0.203888 
0.14992322 0.42844427 0.037830133 
0.37064192 0.33316958 -0.03821546 
0.36089033 0.33207667 -0.11129419 
-0.2534007 -0.24471262 -0.10188955 
0.16485886 -0.1483829 0.27360162 
0.11059235 -0.10612666 -0.35122064 
0.41480812 0.34981236 -0.17577037 
0.15362872 -0.045531 -0.29323938 
-0.09693242 0.2591454 -0.013481853 
0.037078746 0.40213704 -0.022398854 
0.082247004 -0.10755499 0.2806081 
0.29268777 0.40109587 -0.13653329 
0.3900376 0.08716981 -0.14437807 
-0.10648764 0.03950958 0.009647684 
0.3595025 -0.08773448 0.21987322 
0.14160872 -0.059091154 -0.47743052 
0.002416389 0.03431026 -0.4852576 
0.3805553 0.07726568 0.3229125 
-0.3495687 -0.13337758 -0.3479539 
0.27628502 -0.11796623 -0.04146564 
0.107190415 0.23705187 -0.41826507 
-0.18956785 -0.15127389 -0.22295968 
-0.120745294 -0.0566553 -0.16997957 
-0.055790484 -0.26537725 -0.3766897 
0.494695 0.27124572 -0.047949415 
0.16532382 -0.20443694 0.1676632 
0.19175062 -0.014527313 0.3520446 
0.39753112 0.36052078 -0.1864072 
0.12652744 -0.07545444 -0.24140738 
0.07084166 0.40952632 -0.14966021 
0.17274667 0.08552112 -0.41289586 
0.0042950464 -0.11104046 -0.123292275 
0.0786984 0.4568982 -0.20097485 
0.082719326 0.45731398 0.124649614 
0.41087577 -0.0032292088 0.23047315 
-0.45395693 -0.08388227 -0.2532072 
-0.060828593 -0.032491542 -0.5247215 
-0.023946337 0.29700014 -0.042408977 
-0.5254423 -0.124661066 -0.15717651 
0.04695085 -0.19085783 0.1177649 
0.48683697 0.24473482 0.18217526 
0.0023574177 -0.15135966 0.14876167 
-0.05599631 -0.278886 -0.31969658 
0.3564069 0.096992426 0.44221517 
0.45866367 0.2484089 0.24259491 
-0.50380677 -0.12731506 -0.23390858 
0.08949965 -0.19819763 0.04523737 
-0.3045932 -0.36494863 0.036176287 
-0.21247934 -0.28077003 -0.10324672 
0.011530653 0.21684745 0.276632 
-0.06997178 0.27852938 -0.032633007 
-0.074184045 0.006335727 0.17493564 
0.0031476922 -0.062160004 0.24915938 
-0.104330085 0.29478866 0.104051605 
0.34506753 0.3713056 -0.15870002 
-0.07744188 0.13412109 0.040407542 
0.4892672 0.13344423 0.056945708 
0.18604732 0.4439383 -0.11234139 
-0.109822996 -0.19933872 -0.23113355 
0.30033898 0.34466013 0.3114517 
0.39592952 -0.021624176 -0.089509636 
-0.20212416 -0.18085144 -0.24501261 
0.29376116 0.19948246 -0.25686374 
-0.10787967 0.15670195 0.1411969 
0.16839167 0.4278202 0.041812487 
0.44914913 0.037815005 0.13364868 
0.0018654356 -0.036510352 0.25609964 
0.16077845 0.38478667 0.29030156 
-0.08719755 0.100462705 0.06117073 
-0.0016289526 -0.06469421 -0.5403864 
0.20226789 -0.1009724 -0.11665362 
-0.025596544 0.28523627 -0.042338468 
0.43489492 0.298779 0.044928692 
0.048952922 -0.17561486 0.17067295 
-0.2995988 -0.29786098 0.085620746 
-0.14013 0.10561398 -0.116013736 
-0.1974425 -0.17512368 -0.46359757 
0.42121038 0.30362076 0.28619447 
0.16337621 0.19291948 -0.42143813 
0.30987453 0.3663991 0.1499416 
-0.17943978 -0.11027362 -0.24702877 
0.06388791 0.17225046 -0.4648373 
0.23585291 0.2916818 -0.2789197 
0.47368565 0.1458947 0.31673834 
0.5104304 0.27807376 0.04269681 
-0.13760178 0.20594539 0.03956144 
0.056776237 0.4515342 -0.104238264 
0.41330558 -0.033071596 -0.046906438 
0.13755856 -0.11018543 0.28372574 
0.3597916 0.3304358 0.034375254 
0.35554692 0.0721229 0.3503506 
0.35516816 -0.056080326 -0.06570493 
0.15700786 -0.16773427 -0.05575951 
0.38706964 0.2398944 0.38758105 
-0.117104374 0.0697366 -0.015259033 
-0.037400253 -0.25690535 -0.32314008 
0.29298994 0.22686487 -0.25104207 
0.30801302 0.15862004 -0.22554374 
0.4127035 0.022115974 0.25277403 
0.34119695 0.03359972 0.32973388 
0.2557264 0.16167307 0.4232025 
0.39486685 0.28734067 0.36966795 
0.055021357 -0.1871343 0.12407005 
0.25979093 0.39876992 -0.026609547 
-0.045342196 0.32013118 -0.23852356 
-0.18058011 -0.17132105 -0.19039297 
0.08062393 0.48143634 -0.19274439 
0.085113905 0.42063898 0.17184539 
0.48284543 0.26691583 0.16753837 
0.095665775 -0.11559472 -0.13702516 
-0.41667506 -0.1464946 -0.30949575 
0.062989466 -0.1986299 0.11220392 
0.14436546 -0.1381118 -0.100390285 
0.38007352 0.16662912 -0.1271752 
-0.1216893 0.034801397 -0.4802868 
0.016347189 0.42026657 0.08356896 
0.12710817 0.34353402 -0.3082578 
0.38834876 0.28058064 0.35704058 
-0.16954337 -0.25559652 -0.05908355 
-0.38468856 -0.07632389 -0.21908994 
-0.04903166 0.092269376 0.13770515 
-0.10556527 0.13815571 0.028673388 
0.29401025 -0.15409702 0.13900751 
0.08055019 -0.09639749 -0.23389469 
0.05921097 -0.057889048 0.30203646 
-0.114734985 0.13122071 -0.054082356 
-0.069463395 0.3421596 0.09674584 
0.41010767 -0.04199716 0.15931702 
-0.0031070127 0.3122627 -0.08635385 
-0.3849342 -0.10889755 -0.23028022 
0.45757642 0.25243196 -0.1463603 
0.33203116 -0.12695697 0.16878125 
0.23697436 0.18100286 -0.31283253 
0.35578865 0.378775 -0.1572231 
0.21210739 -0.20276028 0.09116385 
0.08885451 0.44589606 -0.21617094 
0.10240968 0.44418457 -0.27997038 
-0.0587366 -0.055483006 0.11025677 
-0.30284646 -0.3867445 -0.003643345 
0.14688313 0.0006935261 -0.39424613 
-0.1425069 0.09845391 -0.34944165 
0.42379147 0.09411758 0.35584882 
0.10746796 0.38085285 -0.22539249 
0.41257194 0.032528136 0.23835526 
-0.078509696 0.058629815 -0.44879737 
-0.011626285 0.33002573 -0.258045 
-0.23606084 -0.22934674 -0.11064099 
-0.15144372 -0.2147203 -0.35186487 
0.11788374 -0.054016624 -0.31433594 
-0.12691747 -0.18432568 -0.5234902 
-0.02631973 -0.27483433 -0.35271317 
0.327798 0.18529114 -0.19258472 
0.35818204 0.1376588 0.44367495 
0.49707708 0.2920135 -0.12294387 
0.38549948 0.32902682 -0.28837815 
0.3778674 0.30961797 -0.23094566 
0.07032216 0.5373117 -0.050941 
0.09750624 0.29083866 -0.37873334 
-0.32361838 -0.3700452 -0.013409647 
0.1613447 -0.13995472 -0.091530204 
0.07912382 0.47229114 -0.14497499 
0.097759865 0.3487068 -0.25706604 
0.4826718 0.28834534 0.12920588 
0.27415457 0.035942998 -0.19254078 
0.35967743 -0.040953342 0.25585112 
0.24875419 0.1498987 -0.36695737 
-0.1382873 -0.19763538 -0.23717213 
0.24157864 -0.13692102 -0.041193195 
0.032412548 -0.13707937 -0.26380432 
-0.020815197 -0.12183017 0.14826818 
0.45708027 0.15350994 -0.08977671 
-0.59755236 -0.18353665 -0.15617816 
-0.06812457 -0.011494845 0.124572456 
0.074406505 0.5284596 -0.015336267 
0.38683996 0.18306133 -0.1218171 
-0.027396943 -0.22884375 -0.48331916 
0.24127309 0.20418757 0.37266842 
-0.058416065 -0.17773035 -0.5198985 
0.33556786 0.3022039 -0.269893 
0.35288453 0.32216468 0.09770811 
0.49500075 0.22186013 0.06994096 
-0.016923046 0.29971611 -0.038614295 
0.13330407 0.45407754 -0.045381527 
-0.07714364 -0.06989571 -0.11477741 
-0.522838 -0.1788741 -0.22109987 
0.49198702 0.11880915 0.16832969 
0.17260292 0.022936586 -0.33479345 
0.089681946 0.41172758 0.19466834 
0.118800305 0.37977564 0.252227 
0.19593416 0.27133724 -0.3268349 
-0.033522993 -0.023412537 -0.53020936 
0.123376235 -0.16009218 0.22648895 
-0.034167092 0.37344423 0.1163369 
-0.15238054 0.05011128 -0.4208581 
0.48817945 0.30074498 -0.036220144 
0.28353372 -0.14561051 0.056315113 
0.47313493 0.117654905 -0.04046832 
-0.17249876 -0.20919825 -0.44445762 
0.1283763 0.42094555 0.20719278 
0.4719635 0.04225527 0.0791036 
-0.15385097 0.16286491 -0.23302689 
-0.31455436 -0.3225813 -0.021413632 
0.2428851 0.16223975 0.3769301 
-0.15811983 -0.013838622 -0.17760944 
0.11195274 -0.041155875 -0.5129698 
-0.123821676 0.09125912 -0.05206041 
0.1114142 0.4608204 -0.29384297 
0.14470783 0.45432025 0.18351792 
0.26850256 0.28464228 -0.2635659 
-0.6010388 -0.19939454 -0.22168122 
-0.49682117 -0.1871837 -0.24781866 
0.33222386 0.31898746 0.29894745 
0.18073754 0.22679178 -0.3765723 
0.0035008192 0.1697057 -0.453935 
-0.025494227 0.11087382 -0.46419615 
-0.032129277 -0.109852105 -0.016166905 
0.3926082 0.03210737 -0.14392948 
-0.0461483 -0.08381715 -0.12706436 
-0.16485737 0.08815073 -0.23272674 
0.42643988 0.069356374 -0.11724259 
0.03400825 -0.07354224 0.27269182 
0.19247974 -0.04115304 0.349841 
0.4730555 0.15840271 0.21336095 
0.35503584 0.3641832 -0.36117607 
-0.22030203 -0.28744847 -0.068706505 
0.10906804 0.07993915 0.34962884 
0.36451063 0.1360382 -0.12909506 
0.41498488 0.08410636 -0.11814426 
0.13076434 -0.110473454 -0.49931806 
0.43891206 0.263559 -0.17350204 
0.30314925 0.42484477 -0.33022094 
0.26001838 0.17048992 0.37813818 
0.1092076 0.3907715 0.24859957 
-0.13125591 0.1642784 -0.35708147 
-0.20196076 -0.08342686 -0.42107624 
0.07128206 0.4109293 -0.064842574 
-0.13459747 0.21407361 -0.205112 
0.33917198 0.33618405 0.06259934 
0.435264 0.33391848 -0.13687629 
0.009388614 0.35189596 0.20497581 
0.43544775 0.30784607 0.12150029 
0.07652427 0.49988693 -0.16141321 
0.34176192 -0.11878011 0.058702916 
-0.013757149 -0.25286815 -0.3530561 
0.14301446 0.39817935 0.27124912 
-0.23092407 -0.30135402 -0.07731862 
0.33481693 -0.0393135 -0.12733985 
-0.12099396 0.00081080804 -0.49521312 
-0.19904228 -0.1243911 -0.26836416 
0.10733847 -0.04622046 -0.3593222 
-0.13808091 -0.09352988 -0.21909139 
0.1968722 0.036186717 -0.36988792 
0.106254965 -0.1335474 0.24608092 
0.097395435 0.29052514 -0.35485607 
-0.15430458 -0.2633776 -0.15055454 
-0.057756543 0.2488096 -0.37612304 
0.0737078 0.5176257 -0.018865868 
0.06692147 -0.13465916 -0.08993883 
0.012300364 0.0031113045 -0.5004462 
-0.17511505 0.03886855 -0.40603516 
-0.08049441 -0.14533676 -0.22756524 
0.28397578 0.37709972 0.2522163 
0.5143782 0.24384311 0.15345685 
-0.20034161 -0.1431311 -0.27906322 
0.119530745 0.5109902 -0.26862532 
0.07708372 0.29358354 0.3012693 
0.38150588 0.13677712 0.45352203 
0.21475232 0.023858668 -0.2988332 
-0.22384821 -0.17638347 -0.2810722 
-0.023229394 0.32608557 -0.01782653 
-0.46314773 -0.15933152 -0.20570734 
-0.22978517 -0.27538687 -0.1887131 
-0.5162836 -0.10226954 -0.16944182 
-0.087676905 0.09069525 0.0913851 
0.20664303 0.27678272 0.34500912 
0.025159752 -0.2318017 -0.40906945 
0.30142134 0.3641719 -0.024282347 
-0.29667175 -0.13039133 -0.32304895 
-0.098038085 0.21316722 -0.08431864 
0.17302088 0.40980834 0.08382451 
0.38330507 0.06255098 0.33216977 
-0.24384375 -0.34285468 -0.08318507 
0.34606168 -0.09253399 -0.007017092 
0.009229244 0.32448855 -0.2734844 
-0.09149784 0.0027377456 -0.4875293 
-0.3321877 -0.076201595 -0.25495744 
0.47615016 0.022423143 0.08954615 
-0.17630349 -0.25754148 -0.26138684 
-0.20904037 -0.099388845 -0.2722989 
0.21897496 0.14413823 -0.41263124 
0.046598073 -0.13505764 -0.07262458 
0.15834644 0.44231603 0.13999614 
0.045833874 0.25029024 0.2970568 
0.014300912 -0.16186967 0.13759808 
0.23510091 0.37894088 -0.29801 
0.30918482 -0.08880146 -0.024423981 
0.40278468 0.06632454 -0.10854648 
0.15075973 0.16513361 0.36362103 
0.049985915 0.43774205 0.1030523 
0.24090122 0.40089983 0.18021391 
-0.5493563 -0.14455937 -0.22542527 
0.22050679 0.3938721 0.1781363 
0.21128339 0.10095419 0.37928733 
0.40050247 0.32351735 0.012064168 
0.087913334 0.50443053 -0.06278368 
0.25041506 0.21546704 -0.30289075 
-0.03968032 0.314943 -0.0047157793 
0.44625106 0.30649424 0.15031134 
0.49420667 0.19466169 -0.0041704644 
-0.15474546 -0.24898382 -0.2629824 
0.039882407 -0.22862907 -0.46716186 
0.467494 0.24542643 0.210894 
0.44863385 0.2742669 0.22714794 
0.10957656 -0.13229188 -0.40379685 
0.02175972 0.30985978 -0.35134563 
-0.080743566 -0.059618436 0.070057906 
0.10545732 -0.16740075 -0.0807117 
-0.08785938 -0.0013262229 0.12877794 
0.44017115 0.2819687 0.06479506 
0.17735463 0.479958 -0.30243722 
0.004538476 0.022517031 -0.462526 
0.4661762 0.06365123 0.020261772 
-0.15020978 0.14672565 -0.20340921 
0.24557969 -0.17830464 0.17282112 
0.043122053 0.27187917 0.2889214 
0.15941755 -0.03003122 -0.3339786 
0.37392765 0.076852046 0.42466986 
0.5023724 0.19532296 0.07765605 
-0.09633879 0.1340466 0.13781947 
0.05135642 0.4111189 -0.042365324 
0.3314924 0.3725039 0.11683296 
-0.0008079007 0.355629 0.17724498 
0.41257644 -0.006473674 0.22102818 
-0.0058838595 -0.08468969 -0.5458862 
0.35934433 0.36488405 0.14047906 
0.17678659 0.35243106 -0.2223251 
0.39528796 0.3168608 -0.031084385 
-0.18663758 -0.2339422 -0.2908519 
0.23266631 -0.1753329 -0.012930414 
-0.19137883 -0.1803614 -0.26889667 
-0.051499322 -0.09455478 0.083136626 
0.46240482 0.036891382 0.09281308 
0.23819342 -0.1887953 0.16793743 
0.338169 0.24256815 -0.1456711 
-0.08652403 0.13617472 0.05960254 
0.37560272 0.04308152 0.3431029 
-0.49892852 -0.06454284 -0.2146577 
-0.02054752 0.32873642 -0.19978946 
0.29522657 0.25051078 0.41668293 
-0.01903772 0.03254866 -0.47330084 
-0.07592056 0.04589515 -0.45519808 
0.2809045 0.12779562 0.40394035 
0.3656997 0.34024203 -0.046643026 
-0.21099596 -0.20778267 -0.24505304 
-0.04592095 0.014110765 -0.5074393 
0.15795888 -0.1350169 0.25662532 
0.21793088 0.3883616 0.27930477 
-0.2688024 -0.08325021 -0.31011117 
-0.078729205 0.1259051 0.18701375 
-0.5536394 -0.16787118 -0.17308979 
0.10949227 -0.02168211 -0.4725046 
-0.092470616 -0.026957791 -0.08174893 
0.18177697 -0.16396752 0.24641229 
-0.073133856 -0.089807734 -0.12851931 
0.087585405 -0.0016598881 -0.46916807 
0.32376325 0.35800713 -0.03889715 
0.22738062 0.42675537 0.21683343 
0.21074815 0.024424905 -0.3301306 
0.08302259 -0.18964067 -0.42830747 
0.27562287 0.38342887 -0.05709933 
0.3335345 0.28698277 -0.222321 
0.09719878 -0.0018095095 -0.51150054 
0.18611613 0.26663435 0.35031092 
-0.04486561 -0.1213339 -0.5162424 
0.17645809 -0.1858009 -0.021519357 
0.40618995 -0.050833937 0.09270707 
-0.11343892 0.31913188 0.036221363 
0.448793 0.18968095 -0.078100726 
0.08939422 -0.11648473 -0.18570764 
-0.20839402 -0.055799536 -0.29156753 
0.029678475 0.3331035 -0.28861952 
-0.121388055 -0.25452083 -0.45006794 
0.43690556 0.07002078 -0.07853858 
-0.21842079 -0.21353228 -0.24601285 
-0.10277142 -0.20131451 -0.25577992 
0.4852441 0.10348051 0.12593797 
-0.10322934 0.017308163 0.021223258 
0.11491412 0.5158418 -0.257866 
0.35237208 0.34285316 -0.033572786 
-0.15098804 -0.13737965 -0.528224 
0.3431547 0.1883123 0.4538139 
0.19990589 0.36978427 0.28015646 
-0.5223618 -0.11389674 -0.2172698 
0.24740076 0.22544181 0.36381614 
0.2802662 0.41124287 -0.16320966 
-0.13331239 0.20983559 -0.2520685 
0.084014 0.5130791 0.018761097 
0.45485222 0.21008232 0.32862726 
-0.1051773 -0.08283582 -0.5000556 
-0.008321903 -0.0024024113 0.255361 
-0.08533547 0.19928801 -0.4050667 
0.06638237 -0.17174138 -0.5506831 
-0.30221817 -0.1943232 -0.29250154 
0.486192 0.112446725 0.08174272 
-0.1315867 0.16002342 -0.26712745 
0.15823181 -0.18783544 -0.010624178 
0.02393393 -0.11568995 0.2335281 
-0.14875235 -0.055794533 -0.2152967 
0.056795266 -0.050984062 -0.5572618 
0.40682855 -0.009260306 -0.10007165 
-0.08345053 0.06840101 0.105450824 
0.03430061 0.13915426 -0.47968188 
0.036282964 0.33678824 -0.040410053 
-0.13163595 -0.21998885 -0.45063987 
0.09270325 0.44643384 -0.24909858 
0.377283 0.36947647 -0.20917763 
0.29847607 0.1396895 -0.19050044 
0.26427403 0.38676926 -0.012253923 
0.106673606 -0.016203007 -0.47009185 
-0.22596163 -0.2828066 0.02140501 
-0.26876104 -0.11583017 -0.3589778 
-0.030471718 -0.26710585 -0.35453403 
0.37403455 0.3172887 -0.30399257 
-0.0459368 -0.04757949 -0.5573484 
-0.2517183 -0.29771826 0.051275536 
0.010041348 0.37147126 0.14986922 
-0.30016345 -0.081879295 -0.3074572 
-0.006563476 -0.039027836 0.24484621 
0.21814792 -0.17275856 -0.0043596188 
0.375114 0.3112844 -0.2716753 
0.08791992 -0.20337795 0.0064425413 
-0.11331853 0.23765251 -0.20332658 
-0.12605493 0.16904067 0.05373889 
0.04165156 0.39138335 0.19814646 
0.16094303 -0.03816586 -0.3301953 
0.10201427 -0.07185559 -0.3460468 
0.15273625 -0.008745749 0.35438883 
0.4536242 0.28723726 0.10052131 
0.15779716 0.20053609 -0.4149623 
0.2350897 0.2900482 0.30786046 
-0.10661451 -0.24135365 -0.43044147 
0.36582068 0.32671878 0.29637492 
0.16107096 -0.09096731 -0.44095504 
0.049691416 0.2995203 0.274632 
-0.07838103 -0.032905295 0.10276296 
-0.16553742 -0.26045385 -0.043974422 
0.3212622 -0.12506919 0.21819536 
-0.14286806 0.0032605263 -0.13533853 
0.2822793 0.409024 -0.11884974 
0.16621707 0.02583085 -0.391869 
0.21791355 0.072946616 -0.34639865 
-0.30698377 -0.15145902 -0.25823686 
0.12119787 0.19226368 -0.44434953 
0.42180339 0.11249583 -0.09409895 
0.055625994 -0.19696617 -0.40273255 
0.13243702 -0.026778499 -0.35683548 
0.12705517 0.49253267 -0.295088 
0.16821736 0.40010014 0.16171253 
0.0861741 0.45969012 -0.25248557 
-0.084562354 0.23123826 -0.094844714 
0.4321676 0.22467498 -0.1063326 
0.15567988 0.4620476 0.21871391 
0.07531232 -0.12119448 -0.28833815 
0.41452995 -0.042124864 -0.036865324 
0.27854246 -0.087908424 -0.055660326 
0.48811334 0.18870907 -0.025805457 
-0.36013865 -0.16484155 -0.25850815 
0.40622643 0.041651532 0.22843333 
-0.04739711 -0.107104786 0.029742394 
0.25445247 0.119471714 -0.29947 
-0.14646058 0.11483673 -0.24164486 
-0.2373899 -0.25523004 -0.033781674 
-0.18107034 -0.20483369 -0.3829724 
-0.100367814 0.0088692065 -0.015186997 
0.46024686 0.12338622 -0.07525248 
-0.057203174 0.277483 -0.36117247 
0.048269834 -0.16951418 -0.0033583103 
-0.15046681 -0.21406281 -0.44740033 
-0.13354924 0.20889817 0.048879568 
-0.3063248 -0.34953064 0.033568893 
0.12814683 -0.14910166 -0.08281634 
-0.1274657 0.20026848 0.11102791 
-0.00039497903 0.019816792 0.26461178 
0.049233906 -0.16057086 0.18904462 
0.19652818 0.37050253 0.29669234 
0.39636716 -0.056274407 -0.044605967 
0.40366933 0.3084379 -0.04406948 
0.21231082 0.10513909 0.37668264 
0.0021548718 0.0076311165 -0.49472833 
-0.092627734 0.07298728 -0.45334 
-0.4822225 -0.118148945 -0.24033985 
0.06647899 -0.18737376 0.12455386 
-0.07435858 0.044702154 0.16056317 
0.44936875 0.29470494 -0.042267688 
0.2525688 0.17399801 0.4266388 
0.04609913 -0.008221641 -0.526214 
-0.24113725 -0.37603188 -0.061652392 
0.11061753 0.45639908 0.17615476 
-0.2332961 -0.28897792 -0.19855438 
-0.22724338 -0.046941787 -0.35295993 
0.13776332 -0.13520192 0.25835538 
-0.19604443 -0.27633044 -0.11755395 
0.47019184 0.16889992 0.36604604 
0.29177493 0.38078728 0.10489662 
0.11003598 -0.13140124 -0.13261788 
-0.11304324 0.16783227 -0.064590864 
-0.061789054 0.3141924 -0.2572067 
0.0071588177 0.00990976 0.25715065 
0.008040742 -0.11449752 -0.13778165 
-0.076801576 -0.034772035 -0.5269286 
0.27756837 -0.042672023 -0.11127993 
-0.064494 0.30843815 -0.003069512 
-0.23527873 -0.17802303 -0.37078777 
0.49922884 0.2563653 0.0045421775 
0.49839815 0.21115816 0.062045343 
0.4461394 0.06530146 0.19088763 
0.18334292 0.42229435 0.09068996 
-0.1941888 -0.33017015 -0.18055733 
0.16750242 0.3587104 -0.22702135 
-0.03336308 -0.086301796 -0.10064084 
0.49955824 0.26962864 -0.01697207 
0.16747858 0.29146758 0.32719427 
0.21022446 0.4600283 -0.19467697 
0.40173733 -0.06412453 0.15228085 
0.21303897 0.40359578 0.0603092 
-0.052750874 0.2801851 -0.15091975 
-0.2118417 -0.29785812 -0.19504358 
0.15237264 0.1265393 0.37233233 
-0.010019707 0.3372962 -0.22296682 
-0.13860823 0.22347023 0.05502753 
0.008326728 -0.07968204 -0.559753 
0.4248719 0.29905534 -0.027726138 
0.0641013 0.3853661 -0.14991955 
0.5130441 0.2346028 0.06466656 
0.21372075 0.02464102 -0.31850946 
0.030355345 -0.17149991 0.062752284 
0.35489383 0.2734021 0.41136608 
-0.073777124 0.10324753 0.18923844 
0.39271945 0.15719444 -0.13119763 
0.051722877 -0.15388465 -0.30606356 
0.01276767 -0.16791232 0.1429081 
0.2816143 -0.008492612 -0.16361342 
-0.17247632 0.014577927 -0.32286665 
0.47543305 0.3129919 -0.1545039 
0.19384243 0.40191618 0.152911 
0.4320995 0.26773664 0.28648436 
0.42264006 0.0261938 0.22519393 
0.121426895 -0.029413363 -0.37296143 
0.37741014 0.37830612 -0.23635949 
-0.032579158 0.3730039 0.10258477 
0.36875647 0.34165937 0.06457148 
0.268897 -0.085753314 -0.07466358 
0.2879639 0.3882521 0.008271782 
0.3223701 0.17766246 -0.1405611 
0.027012179 0.24922341 0.27961075 
-0.033655833 -0.14265671 -0.53043824 
-0.028924588 0.016320897 0.22172529 
0.11007479 -0.09466657 -0.34137735 
0.13652945 0.11201554 -0.45105538 
0.2246792 0.39994118 -0.25791487 
-0.10833264 -0.2167845 -0.46859837 
0.16869918 0.4517462 0.21686178 
0.18809912 -0.09841019 0.3001475 
-0.09962125 0.13742338 -0.41330963 
-0.11592492 0.24208452 -0.20360985 
0.083092734 -0.15137011 -0.36876792 
0.44912013 0.003834164 0.1165486 
-0.06365778 0.07453707 0.13122694 
0.05171129 0.49870607 0.060884006 
0.21445787 -0.046818852 0.34309012 
0.11651358 0.24618368 -0.3897764 
-0.0033325038 0.32826996 -0.22913125 
0.08552396 0.4311886 -0.19534858 
0.26946345 0.12773341 -0.2994386 
0.013504416 -0.14776415 -0.002011732 
0.1497173 -0.092959754 -0.17832209 
0.23136914 -0.021112058 -0.21809103 
-0.041739676 -0.08293532 0.09848822 
-0.25719124 -0.168095 -0.37723643 
-0.09690839 -0.25839958 -0.34145784 
-0.08165979 0.2955187 -0.20757234 
0.24227759 0.40871945 0.2026353 
0.01730476 0.05556415 -0.46291995 
-0.49937576 -0.17303179 -0.2091037 
0.0016690623 0.17195842 0.3082393 
0.26798418 0.4028529 0.18238775 
0.06104408 0.0053173783 0.33119184 
-0.037664015 -0.2508822 -0.43927357 
0.30653098 0.36492383 -0.017584004 
0.17181584 0.42267552 0.11200259 
-0.030984836 0.27747345 -0.37891492 
0.25390357 0.19054282 0.42882752 
0.2689769 -0.016524898 -0.1512033 
-0.26545385 -0.27610487 -0.023877524 
-0.49384937 -0.16143677 -0.30519372 
-0.33449045 -0.13289599 -0.23202829 
-0.17976277 -0.20133515 -0.11207455 
-0.14963067 -0.20683108 -0.4593381 
0.28570032 -0.115992315 -0.010862974 
0.4231078 0.2700691 0.32823002 
0.34473878 0.22951661 0.4229062 
0.3157663 -0.122386396 0.23811285 
-0.06265772 0.19947426 -0.415149 
0.2043849 0.42868805 -0.28991356 
0.31685802 -0.04325287 -0.15989019 
0.40447038 0.026474092 -0.1242092 
-0.27425793 -0.29010847 -0.124980606 
0.3869665 0.31819013 0.02542935 
-0.30997512 -0.33554825 0.059226375 
-0.3908187 -0.096438535 -0.20786694 
0.061270874 0.37698105 -0.18701258 
0.2612896 -0.16095564 0.07922347 
0.4537876 0.29884124 -0.19341432 
0.35930067 -0.0545477 -0.092466585 
0.3500765 0.33529893 -0.029532723 
-0.3187437 -0.32947814 4.2036176e-05 
-0.36442694 -0.13745226 -0.21301132 
0.25583926 0.35842568 0.27174422 
0.05882505 -0.06712317 -0.5331435 
-0.12443462 0.16353132 -0.099488616 
0.24481906 0.44018513 -0.3022182 
-0.11909224 0.25635976 -0.006153809 
0.06910474 -0.19985487 -0.4920482 
-0.11168332 -0.1389837 -0.22363362 
0.46227148 0.15271464 0.19652665 
-0.4846057 -0.17302811 -0.2062534 
-0.1282921 -0.12817502 -0.5020117 
0.12481538 -0.13339676 0.25645378 
0.017010674 0.28573126 0.26327386 
0.056904815 -0.07660792 0.30273384 
0.024126735 -0.21208788 -0.5009674 
-0.012046008 0.38915515 0.11415929 
-0.12654628 -0.105123624 -0.5002021 
0.088119045 -0.11467972 -0.1740101 
0.28374368 0.37490356 0.03344892 
-0.4653674 -0.13404004 -0.19165127 
-0.07548069 0.10533713 0.12506732 
-0.0075935577 0.09361624 0.26800397 
0.14704488 -0.118542984 -0.41099572 
0.10605511 0.49559206 0.024487436 
0.1198867 0.35163128 -0.23271702 
-0.12130365 0.24699838 -0.22549154 
0.0117430715 0.4433562 -0.024872892 
0.4688715 0.14817649 0.20772165 
0.1142985 -0.08750755 -0.2579392 
-0.0046030264 -0.121499196 0.110154435 
-0.19507712 0.0050397962 -0.37921444 
-0.045818623 -0.10336826 0.10579562 
0.46863654 0.15257424 -0.06451971 
-0.56465197 -0.16507429 -0.16848898 
-0.14456668 0.12416196 -0.2901083 
-0.18930332 -0.2757114 -0.08131104 
-0.00851281 0.23499557 -0.42156458 
0.19605027 0.113690466 -0.40626323 
0.45103857 0.047864817 -0.051153645 
0.40463677 -0.006979337 -0.09234521 
0.17365421 0.19058987 0.36545837 
0.31603596 -0.1330742 0.07861172 
0.0010880438 -0.25185147 -0.42842343 
0.07706909 0.31832936 0.26993397 
0.36905944 0.24359101 -0.14673749 
0.12471234 -0.17065497 0.20284973 
0.03979761 0.3711676 -0.14891157 
0.34869713 0.247274 0.42703918 
-0.30712324 -0.15566094 -0.26870817 
0.5009782 0.18693285 0.015473907 
-0.5479913 -0.13546206 -0.1491545 
-0.01603527 0.31862584 -0.161466 
0.31483096 0.21790642 -0.23188064 
0.34666985 0.3839043 -0.35603654 
-0.29754204 -0.30339253 0.08670038 
-0.20848688 -0.19321513 -0.3722715 
0.11592752 0.09391658 0.35903674 
0.3836726 0.3511009 0.11755805 
0.4403634 0.27421933 0.2767302 
0.35392293 0.08940709 0.4572108 
-0.07802024 -0.26051643 -0.32013324 
-0.040896755 0.26400676 -0.06566776 
-0.08562076 0.041503668 -0.45596442 
0.012719051 -0.16437529 -0.28308403 
0.029127985 0.35748672 -0.22004321 
0.08078549 -0.19908729 -0.47986257 
0.14691158 0.1190902 -0.45113117 
0.11708282 0.467011 -0.04563494 
-0.114345044 0.2661778 0.012562129 
0.25885144 -0.030723853 -0.12550367 
0.090883195 0.43670014 -0.2238879 
0.28938952 0.0007184919 -0.16567741 
-0.09434743 0.2932757 0.10584279 
0.2186499 0.37069523 -0.22700289 
0.20278355 -0.09985921 -0.13546248 
