-0.06755016 0.29062542 -0.2576565 
0.03942313 0.14135668 0.20311603 
-0.031235024 0.02879152 0.18086058 
0.27688012 -0.0069159595 -0.16500615 
0.29987243 -0.33428478 0.13882025 
-0.19007027 0.30537224 -0.10689336 
-0.13383542 0.3378695 0.035829283 
-0.036877815 -0.22800131 0.2086136 
0.21711777 -0.18520409 -0.13589522 
-0.036706768 0.20218723 0.18769097 
0.1093418 0.30149883 -0.07440275 
-0.19473001 0.37275732 -0.16050334 
0.029682226 -0.08007116 -0.26281664 
-0.1517927 0.08201744 -0.27173397 
0.1929349 0.029003702 0.20354499 
-0.033710174 -0.04012118 -0.12007204 
-0.067919396 0.1102229 0.18183853 
-0.04010558 0.3365491 0.019030992 
0.044646144 -0.13439219 -0.226237 
-0.037530035 0.10328227 -0.35127023 
-0.014717981 0.33158582 0.008833917 
-0.026752854 -0.01608213 0.19035506 
-0.08605296 0.041598916 -0.005365595 
0.17109302 -0.19809212 -0.095327586 
0.07165823 0.24062137 0.12761287 
0.299547 -0.11175395 -0.0049885064 
0.26536694 -0.3313953 0.092656955 
0.03198286 0.17286025 -0.30735338 
-0.04690521 -0.23875786 0.31143117 
0.22062658 -0.28909108 0.038021386 
-0.18100204 0.26972115 0.01790187 
0.35332784 -0.34342557 0.07373211 
-0.105972625 0.07390468 -0.16100623 
-0.27125892 0.07574538 -0.28472602 
0.18518062 -0.2550647 0.10003037 
0.21219628 0.1641818 0.09942957 
0.08403296 -0.16243169 -0.06207074 
-0.17577103 0.09892707 -0.3046317 
0.28069898 -0.18985233 0.15771845 
0.12756667 -0.11649581 0.16759549 
-0.10525243 0.07081664 -0.1917572 
0.25199795 -0.122554846 0.10503002 
-0.14855345 0.14641398 -0.04971641 
0.24296223 -0.13461503 -0.13528249 
0.29942596 -0.1593794 0.09336961 
0.023210863 0.136463 -0.32441783 
-0.085634105 0.1205308 -0.33391938 
0.29391155 -0.13935272 0.08132705 
0.19790553 0.18163517 0.12219867 
-0.1751105 0.43239254 -0.12790854 
-0.15976118 0.42216682 -0.13450745 
0.29616034 -0.26162958 -0.03699256 
0.253756 -0.12349064 0.06447232 
-0.14887555 0.12554942 -0.15634716 
0.06975098 -0.12130369 -0.22614789 
-0.16063234 0.22898021 0.12647796 
0.23042633 -0.018556198 0.15183483 
0.035046183 0.08232175 0.22898811 
0.15130535 -0.06498261 -0.27257004 
-0.19413613 0.36339536 -0.19153512 
0.11871341 -0.08063529 -0.29553413 
0.095834486 0.16458109 0.20444652 
-0.21855459 0.1640554 -0.2865979 
0.08904291 -0.12958968 0.0703303 
-0.16804889 0.27751654 0.08372945 
0.19604321 -0.30398452 0.0002887518 
0.06104513 0.27030772 0.10624181 
-0.2633659 0.21248189 0.11482634 
0.030041642 -0.017265134 -0.324269 
0.24526413 0.1816142 -0.12583183 
0.04458264 0.09445965 -0.32651868 
-0.01638244 -0.15362264 0.16830032 
-0.13974854 0.27796584 -0.2218733 
0.21466053 -0.07343303 -0.2225658 
0.2714451 -0.34483767 0.09190729 
-0.11472568 0.3449531 -0.20405114 
0.08151445 -0.11985331 -0.2512691 
0.3165341 -0.16934787 0.060303587 
0.08425295 0.25707033 -0.24641137 
0.010030173 -0.13791716 -0.09982829 
0.22045463 0.20602964 0.04066975 
0.09494891 -0.2223517 -0.11568452 
0.09079265 -0.12731169 0.15115844 
0.051089853 0.3064406 -0.2179383 
-0.15691271 0.34780613 -0.23644449 
-0.012423964 0.07771247 0.23198095 
-0.1473993 0.14635609 -0.039206415 
0.05202395 -0.086671874 -0.27700922 
0.30639264 -0.1587105 0.01087399 
-0.004014553 -0.09453023 0.1453301 
-0.16734436 0.1569445 -0.3418929 
-0.02115914 -0.2007542 -0.15596916 
-0.13667038 0.1779898 -0.29552707 
-0.1487096 0.20898114 0.15674967 
-0.14778177 0.25533456 -0.14742623 
-0.08989933 0.056758348 -0.17985098 
0.17685178 0.1565325 -0.24133027 
0.14109835 0.07227497 0.20866588 
0.22676024 0.17382726 0.07653004 
0.22039777 -0.1708939 -0.07230507 
0.2530315 0.1770767 -0.10433842 
0.11896923 -0.2050639 -0.13548344 
0.0466899 -0.09638909 0.116420865 
0.037382495 -0.10833521 0.12522767 
-0.14805284 0.13881414 -0.147139 
0.27377596 -0.27122048 -0.058258127 
0.164525 0.25072345 0.04621551 
0.24861544 -0.35540378 0.055996258 
-0.01925949 0.10825731 -0.34681576 
0.2986665 -0.14428133 0.016969495 
0.34408823 -0.3381646 0.1168869 
0.28917947 -0.3342623 0.0081728855 
-0.1303141 0.17182508 0.12919046 
-0.2559339 0.22997268 0.10761722 
0.2578975 -0.28713867 0.06280826 
0.07087582 -0.15400833 -0.05434102 
0.2906754 -0.12790084 -0.012889406 
0.2568983 0.16483194 -0.11503535 
0.20443375 -0.3095362 0.007012863 
0.14211476 0.28971532 -0.13180251 
-0.057786535 -0.019688558 -0.052101307 
-0.3063448 0.09608515 -0.32445756 
-0.29763472 0.14819992 0.069015175 
-0.2336893 0.06102641 -0.26996848 
-0.0040921574 0.3763887 -0.071478836 
0.34444484 -0.30452713 0.14965601 
0.16084093 -0.17969787 -0.1870537 
0.013807753 0.09481307 -0.3608615 
-0.08750704 0.09411015 -0.2753045 
-0.14416853 0.28861147 -0.21851532 
-0.0487721 -0.15135671 0.21890393 
0.08122783 -0.14443532 0.15949784 
-0.047505073 0.25648335 -0.28729525 
-0.03869218 0.35313034 -0.066473395 
0.30513188 -0.03930036 -0.05793202 
-0.016379517 -0.060175933 0.18774243 
0.18939345 -0.20085388 -0.07825335 
-0.21342018 0.42563775 -0.13311908 
-0.15055953 0.31103426 -0.2146979 
-0.19922492 0.09275517 -0.22948225 
0.30928692 -0.2281972 -0.03588195 
0.24365622 -0.06460833 0.10933494 
0.075458124 0.106698506 -0.30058876 
-0.028196333 0.2299072 0.18023872 
0.04685945 0.33028913 -0.14055915 
0.16718838 -0.019007422 0.22784968 
-0.0011089263 -0.059134986 -0.22506192 
-0.15966095 0.300456 -0.068359576 
0.05663876 -0.12128577 0.1227443 
-0.17132066 0.30390015 -0.09797939 
0.0009548402 0.3483061 -0.039015383 
0.179611 -0.060300164 0.17091338 
0.15660053 -0.22094697 -0.012593008 
0.05683988 -0.1601922 0.18480703 
0.20860723 0.20243987 -0.18115844 
0.14915366 0.2297388 0.12601621 
0.024712006 0.006948515 0.22233228 
-0.12940885 0.13958533 0.10735029 
0.001200921 -0.07981782 0.120143205 
0.31100833 0.05795379 -0.1154564 
0.28636593 -0.048098847 0.100238845 
0.31047052 -0.034689024 -0.058267687 
0.034130696 0.3432475 -0.07748299 
-0.1244579 0.35812435 -0.19388328 
0.23643862 0.012203818 0.14491837 
0.21483512 -0.1658212 -0.13486801 
-0.29323974 0.13927935 0.06735138 
0.039223943 -0.107646 0.10386909 
-0.11429024 0.1111905 0.09341215 
-0.010558599 -0.23696649 0.2964792 
0.0059117624 0.3127061 0.052316286 
0.19611876 -0.11357618 -0.23153584 
0.3083322 -0.31353998 0.14381732 
-0.13136601 0.12388564 0.057982728 
-0.010786093 -0.34877548 -0.17998189 
-0.014169456 -0.18550912 0.16886364 
-0.13297996 0.082614005 -0.29141146 
0.26582906 0.0017073057 0.11250035 
-0.16659556 0.1814399 -0.079544336 
0.091699295 -0.1381282 0.14810674 
0.20759656 0.015140956 0.17333579 
0.1912528 -0.23027468 0.13363275 
0.20286764 0.023403987 -0.24590385 
0.21031742 -0.32424352 0.006688318 
0.30466464 -0.31160885 -0.014965174 
0.105191305 0.122903384 0.1765493 
0.01646967 0.3098444 -0.20881517 
0.31235853 0.05930844 -0.08317696 
-0.055645254 0.36452913 -0.0788441 
0.3158113 0.046264317 -0.061731227 
-0.038412884 -0.28098512 -0.124106556 
0.15617886 0.13325708 0.16041404 
-0.1858115 0.36165202 -0.09337265 
-0.096430436 0.038589302 -0.19924982 
0.06564908 0.28301978 0.08070547 
0.14786424 0.037091188 -0.30114895 
-0.0017777672 0.15968166 0.2168153 
0.3208197 -0.34526595 0.004273751 
0.17498967 -0.106461614 -0.23159598 
-0.105904326 0.08004465 -0.15765858 
0.09733575 0.30915222 -0.14283669 
0.30816543 -0.021541392 -0.09401921 
0.3524669 -0.30895987 0.07441125 
0.00079811446 0.1847062 0.18178934 
-0.038526308 0.07207301 -0.3145613 
-0.20318004 0.26822603 0.073202275 
0.21424462 -0.28257874 0.12963751 
0.2668631 0.07209927 0.11194753 
-0.14961691 0.22567123 -0.15403579 
-0.023275293 -0.23006366 -0.13585126 
0.19512673 0.20164731 0.071012326 
-0.09571487 -0.20785052 0.25223774 
-0.21368934 0.4030906 -0.18342605 
0.16084209 0.081751816 -0.26054633 
0.028996319 0.35206538 -0.06548796 
-0.19099334 0.4078036 -0.17743905 
-0.073978074 0.36421028 -0.1338912 
0.23031376 0.13502198 0.09638615 
0.3229854 -0.18972512 -0.030387193 
0.24989104 -0.18708901 -0.047879435 
-0.08648572 0.0328083 -0.1676393 
0.35606468 -0.2918606 0.04998211 
0.1547502 -0.05845061 -0.27959812 
0.29586557 -0.09202279 -0.032717995 
0.0008804059 -0.1402454 -0.11950657 
0.023106705 0.2183256 0.16287966 
0.13029246 0.12214906 0.17767957 
-0.0037755147 -0.065494895 0.13587716 
0.28602105 -0.32429478 -0.02673682 
0.10821499 -0.19593602 -0.0996038 
0.11038949 0.25856438 0.10341887 
0.061728265 -0.22007395 -0.117391735 
-0.07855426 0.1568487 0.16320184 
-0.079166114 0.059201073 -0.22179097 
-0.19640087 0.15995897 -0.20228745 
-0.1693422 0.22921787 -0.07856786 
0.21672316 -0.1687398 -0.1549779 
0.02246621 0.17388985 -0.31597465 
0.046259847 0.09313331 0.2262502 
0.140674 0.29500422 -0.05672373 
0.14103654 -0.118048675 0.16230203 
-0.010483779 -0.014803909 0.15567344 
-0.036502115 -0.07132458 -0.062622234 
0.24384625 -0.009709386 -0.20337802 
0.35143188 -0.28183073 0.090696946 
-0.15374252 0.18246163 -0.3121956 
-0.102212496 0.08245988 0.10549541 
-0.10290015 0.11778538 0.11909531 
-0.03111304 -0.13531591 0.2032691 
-0.04305167 -0.034562655 0.02284211 
0.21759474 0.1335362 -0.2155732 
0.25884178 -0.00719399 0.09051867 
-0.027105978 0.18979031 0.19583221 
0.027354944 -0.04747104 0.24569938 
-0.120573856 0.08196115 -0.14216818 
0.28528196 -0.25749826 0.16842297 
0.32308736 -0.27115276 0.019823464 
0.0142051885 -0.0806776 0.028368402 
0.30492815 -0.15242252 0.02657008 
-0.14785333 0.18468407 -0.1406054 
0.26390105 0.15207897 0.02081714 
0.317019 0.059577923 -0.093336694 
0.12453278 -0.035941694 0.22774763 
-0.039338917 -0.12645079 0.16472456 
0.15029521 -0.17849325 0.10678558 
0.20048165 0.12145844 -0.24930017 
0.2891294 0.13039093 0.003938921 
0.10195536 -0.026309399 -0.30192718 
-0.28831413 0.14119002 -0.30156422 
0.1485926 -0.0016127032 -0.26598224 
0.13629644 -0.17777598 0.086910926 
0.16400623 0.26612324 0.023414716 
-0.010678417 -0.04522737 0.14424887 
0.18346299 -0.13110967 -0.2244389 
0.031866476 0.26449648 0.12243605 
0.21465531 0.08799349 -0.23943707 
-0.12686959 0.24227357 -0.26738155 
-0.086055785 -0.21364222 0.27264482 
-0.19731104 0.2835218 0.045286756 
0.30416113 -0.1893709 -0.027004749 
0.036131594 -0.08032407 -0.24489386 
0.0076072672 -0.19869402 0.27521852 
0.095173 -0.066207685 -0.30724883 
0.107578374 0.28512436 -0.17970534 
-0.10532647 0.3483682 -0.18875073 
0.069691494 -0.13500337 -0.019593948 
-0.16411036 0.19271636 -0.005923808 
-0.009385774 -0.10883268 -0.13992232 
0.04228265 -0.09601605 -0.2412655 
-0.05258693 -0.0066258395 -0.18378887 
-0.27092478 0.22570464 0.03519824 
0.30988485 -0.2806359 0.18051708 
-0.06835047 -0.18265969 0.22621053 
0.0044812984 -0.071747094 0.0023332122 
0.23315805 -0.34446943 0.007471506 
-0.088999785 0.07267257 0.07732651 
-0.036905218 -0.24232353 0.23630784 
-0.06771616 0.33953556 0.034387067 
-0.1262789 0.3938279 -0.14450672 
-0.13568845 0.2697984 0.122374706 
0.30646804 -0.0366346 -0.023674041 
0.22145122 0.12605996 0.12816522 
-0.050380334 0.26002082 -0.29111457 
-0.30013725 0.20598875 0.11779961 
-0.0024122023 0.107471995 0.22927225 
0.29131344 -0.15703648 0.08695028 
-0.17993946 0.33071172 -0.05353839 
-0.15960489 0.1033701 -0.19707172 
0.2930624 -0.117559664 0.0043703644 
0.08039454 -0.08095223 -0.28963432 
0.1520288 -0.21889402 0.06843369 
-0.008435804 -0.06548539 0.17232612 
0.26649487 0.14995137 -0.1017094 
-0.24661414 0.1589585 0.036461305 
-0.16441588 0.39959493 -0.19587587 
0.063229024 0.2917858 0.033392273 
0.18860157 0.16072254 -0.2348088 
-0.0010408394 -0.23024009 -0.21679078 
-0.17380479 0.13969451 0.024681902 
0.28957552 -0.31266293 -0.04368192 
-0.09016498 0.048008304 0.027067756 
-0.13813004 0.12225216 -0.31020802 
-0.049551025 -0.020804295 0.019464172 
0.22831778 0.17526041 -0.1624352 
0.073609345 0.24781199 -0.24413857 
-0.11229002 0.08758661 -0.19208376 
0.30952358 0.03407894 -0.0075704046 
-0.011583808 -0.046911363 -0.19267678 
-0.025193058 -0.033881206 -0.21063878 
0.070169985 0.21922784 -0.26574016 
0.27416983 0.13855863 -0.11075246 
0.16500904 -0.12351464 -0.2498635 
0.3487685 -0.250113 -0.01827706 
-0.21092874 0.26376796 0.043761097 
-0.20683019 0.15179726 -0.29738018 
0.33952343 -0.33465707 0.11022309 
0.16533674 0.20214787 -0.22497791 
0.26600322 0.13629957 -0.11844535 
-0.04896522 -0.15478264 0.22120023 
0.004934201 -0.20442662 0.2321288 
-0.12322533 0.084373154 -0.27097297 
-0.205171 0.16906531 0.03634403 
-0.026433852 0.0126329 -0.2682945 
-0.03648737 -0.047812987 -0.052481547 
-0.15822102 0.3248171 -0.2075175 
0.010107399 0.11612727 0.23043081 
0.31049922 -0.02352328 0.0061475663 
-0.07856068 0.053605407 0.08909362 
0.11732225 0.15960668 -0.27771318 
0.02655745 -0.2868752 -0.14434242 
-0.24494115 0.087342955 -0.25136465 
0.28750923 0.035860877 -0.14538932 
0.12183879 0.051655214 -0.2979622 
-0.15521564 0.24643457 0.13231638 
-0.2266213 0.13263313 -0.21116418 
-0.20480226 0.07788228 -0.28533408 
-0.15919863 0.3954815 -0.091254175 
-0.19371523 0.10208587 -0.22535706 
0.020681169 -0.16204022 -0.19218707 
0.1765666 0.19700383 0.1277192 
0.31459242 0.041783094 -0.029978437 
0.099803336 0.096524015 -0.28398907 
-0.068080485 0.012968431 -0.18521829 
-0.16899155 0.3586476 -0.030967914 
-0.09546158 0.208648 -0.30705878 
-0.065453574 0.08082047 0.15270379 
0.33703497 -0.21834072 0.09300728 
0.2712741 0.1419272 -0.022334017 
0.1947402 0.060589693 0.18571447 
0.11476335 -0.20164469 -0.20434585 
-0.04997315 -0.28753892 -0.17623432 
-0.053337123 0.374273 -0.10214448 
-0.15044151 0.16372947 -0.09691774 
0.069466874 0.32361212 -0.13549508 
-0.33369172 0.19045845 0.0669663 
0.16222446 0.2632471 -0.16418575 
0.25632077 -0.2926889 0.054092564 
0.31266677 -0.01408061 -0.01634255 
-0.020217871 -0.02271726 0.08181484 
0.21104854 -0.189055 -0.14242575 
0.23560272 0.018212333 -0.21884541 
-0.15895478 0.2079844 0.1546902 
-0.09098481 0.03794234 -0.002044577 
0.023608346 -0.026873657 0.22790298 
0.1300784 0.21126291 -0.25256345 
-0.18799742 0.21121107 -0.22551887 
0.1666346 -0.23110588 -0.022020588 
0.0108119575 -0.064011626 0.23981413 
0.11381514 -0.21373568 -0.18404385 
0.35401842 -0.35029083 0.028949056 
0.20919007 0.07665092 0.1418038 
0.03472563 0.054363642 0.23347168 
0.3301909 -0.24250776 -0.054967035 
-0.014185749 -0.33548337 -0.20333146 
0.26400524 -0.0058579044 0.124426335 
-0.06144508 0.054489106 0.0044798395 
0.1904941 -0.06373483 0.18786179 
0.21926641 -0.0626181 0.14498673 
0.12358154 0.16405651 0.17035757 
0.27138168 -0.34088773 0.098376565 
0.13568571 0.27268484 -0.17049693 
-0.07239136 0.29509532 -0.24824402 
0.14304137 -0.056828566 0.22087774 
-0.02566348 -0.021196067 -0.23833622 
-0.00061484426 -0.20810142 0.24193354 
0.29598382 -0.01735957 0.02787637 
-0.1484345 0.13478999 -0.17578426 
0.04609145 -0.21828942 -0.20425858 
0.2907396 -0.034716446 0.052120462 
0.2810707 -0.09577763 0.07296686 
0.041844375 0.041927464 -0.33436176 
0.24866188 -0.19644307 -0.09098025 
0.3270533 -0.20608048 0.06581651 
-0.20442447 0.36313266 -0.12573287 
-0.19298826 0.18936083 0.1253594 
-0.09699152 0.28134388 -0.2930666 
-0.018511485 0.36589086 -0.052937463 
0.09381284 0.307572 -0.14544548 
0.27653033 -0.085300304 -0.1464089 
-0.16661209 0.27155313 -0.014761558 
-0.03510541 -0.23745663 0.21696495 
-0.2314952 0.14811607 -0.3068257 
-0.026248094 0.09068773 0.18935008 
-0.017183661 0.11392908 -0.3452345 
-0.008821402 -0.018747859 0.16220328 
0.041570857 -0.06554688 0.26748472 
-0.30969647 0.14727247 0.12178895 
0.041704293 0.06352215 -0.33389652 
0.27419755 -0.06499455 -0.12397783 
0.19759157 -0.105508894 -0.23098384 
-0.023041133 -0.34123752 -0.20606878 
0.06978935 -0.22050257 -0.2025196 
0.15384036 -0.10546065 -0.26103055 
0.28839278 0.086603045 0.04699576 
-0.121938094 0.17351916 -0.3003061 
-0.03286105 0.062470023 -0.3267413 
0.26651433 0.179022 -0.0041512437 
-0.08608185 -0.20285651 0.29097205 
-0.0022365947 -0.08336948 0.0014742315 
-0.00043489737 0.3032641 -0.21914367 
-0.0016713288 0.028455636 -0.34282792 
-0.017433735 -0.040303443 0.1176953 
0.30788273 0.067625694 0.02185852 
-0.044834808 0.06128502 0.15378489 
0.004145137 -0.2772104 -0.12274738 
0.3071536 0.07433688 -0.006567003 
0.26467007 0.11855518 -0.12907451 
0.1575944 -0.14195515 -0.24159373 
0.2782266 -0.21191952 0.1791297 
0.038441587 -0.15816253 0.27594328 
-0.28975087 0.17233214 0.11855085 
-0.16153485 0.27666867 0.07361063 
0.11407508 -0.13428468 0.0842917 
-0.20322126 0.39934114 -0.18230695 
0.30957845 -0.15502755 0.028905537 
0.30507353 0.0125627415 -0.093975835 
0.050944872 0.27859253 0.10618968 
-0.119574524 0.32493028 -0.21453133 
0.041596536 0.31033683 -0.18904382 
-0.15363686 0.3247308 0.03733812 
0.15086628 0.27312556 -0.14989968 
-0.052990466 -0.2932168 -0.20159337 
-0.12460421 0.13376553 -0.043891698 
0.031856775 0.008210334 -0.32927075 
-0.040733825 0.15672494 -0.34363607 
0.12552981 -0.008331159 0.23156767 
0.10063734 -0.1604884 0.06621497 
0.3322826 -0.20828225 0.03401419 
0.005629951 -0.054547723 -0.25118676 
-0.1368452 0.24513146 0.13391918 
0.034385063 -0.29224807 -0.19946788 
-0.262618 0.05891135 -0.33703974 
-0.11912991 0.08217781 -0.08562161 
0.009338011 -0.18728246 0.26428232 
0.14760908 -0.20050357 -0.029313995 
0.051063966 -0.16425085 0.2330333 
0.1264253 -0.0054813507 -0.29642254 
-0.01766362 -0.21548267 0.18559267 
0.09853075 -0.118496425 0.22130007 
-0.07110872 0.027635531 -0.06549365 
-0.06713805 0.11991734 -0.30644488 
-0.10541864 0.38612247 -0.13940082 
0.01728775 0.27644122 0.11262769 
-0.09804204 0.2555687 0.1469461 
-0.06370527 -0.20027553 0.29234603 
0.25040406 -0.119189784 -0.13136056 
-0.13197854 0.38394392 -0.06758963 
0.008943298 -0.20065077 0.20538083 
0.2806364 0.0908624 0.07016457 
-0.14074804 0.32025677 -0.22989948 
0.14707848 -0.13520753 -0.25295493 
-0.1345355 0.35005954 0.015095449 
0.011014651 -0.31820068 -0.13735607 
-0.04863018 -0.012897417 -0.15990706 
0.03584553 0.3458072 -0.041845113 
-0.08494927 0.34050885 -0.19715682 
0.26259983 -0.09002915 -0.17195876 
-0.04687413 0.09728439 -0.35309267 
0.016968966 -0.11916875 -0.2041518 
0.07413728 -0.24365762 -0.17889751 
-0.20794202 0.3764396 -0.12851772 
-0.19204591 0.42660412 -0.1938216 
-0.28687018 0.1619231 0.1232305 
-0.012408718 -0.06595409 0.013064125 
-0.0907088 0.115505226 -0.29263046 
0.09871883 -0.08683971 0.24254651 
-0.09982288 0.084946655 -0.16282643 
-0.18687558 0.25537276 0.099084 
0.040977705 -0.021083329 -0.33656666 
-0.317054 0.15778075 0.057277616 
0.364605 -0.23223098 -0.020660805 
0.101587184 -0.17926498 -0.21482828 
0.2280719 0.14880838 -0.1818043 
-0.27117875 0.13574798 -0.3180497 
0.27801824 -0.114216186 0.11916889 
0.2331726 -0.11840433 0.1247524 
0.251357 -0.16484761 -0.09475952 
-0.018617399 -0.04131738 -0.19048789 
0.100955054 -0.21829177 -0.1319274 
0.21248959 0.10101437 0.12872031 
-0.19516526 0.14992045 -0.30789506 
-0.044214815 0.211665 -0.31617373 
-0.16352671 0.2922979 -0.09295661 
-0.03801865 -0.21328384 0.20749126 
-0.17030104 0.14330164 -0.3175783 
0.0027727925 0.014117504 0.19760588 
-0.19993392 0.38164625 -0.12917382 
-0.13037208 0.28173724 -0.22726633 
0.07199882 0.31917706 -0.00945599 
-0.08273802 0.36176428 -0.050639194 
0.16312613 0.2467358 -0.15017256 
-0.11488747 0.07507616 -0.09424827 
-0.22376314 0.24075733 0.11511886 
0.15337488 -0.23091547 0.06238939 
-0.15351188 0.15531014 0.0021053143 
-0.2762604 0.15491906 0.06600946 
-0.0478023 0.07414125 0.16563836 
-0.1519976 0.25455004 -0.14018707 
-0.15959586 0.10651622 -0.2964063 
-0.12447022 0.40166262 -0.18034175 
0.14036325 -0.15351184 -0.23985489 
-0.14319813 0.36734706 -0.023839062 
0.089207135 0.080135144 0.2184953 
-0.06687797 0.0026902652 0.01803477 
0.27817655 -0.22090052 0.18261623 
-0.28247127 0.13865687 -0.32693556 
0.29141843 0.06969156 -0.12447857 
-0.0038691447 -0.11529776 -0.14192753 
0.13564964 0.24910635 0.06900999 
-0.110576384 0.10275891 0.07488362 
0.030201228 0.35052595 -0.086130954 
-0.30328876 0.16472635 0.09176111 
-0.04421819 -0.25201392 -0.1735551 
0.32444707 -0.36127874 0.06682 
0.011396656 0.016198067 0.22852387 
-0.01785378 -0.35628414 -0.18418367 
-0.07748236 -0.22704905 0.28044105 
0.10919237 -0.12434011 0.180769 
-0.067490056 0.013923977 -0.1813719 
0.26928347 -0.13370173 -0.08361775 
0.11810173 -0.10986619 0.22208196 
0.0075378213 -0.10001731 -0.035136666 
0.25741234 -0.29972455 0.05519928 
0.053755958 -0.25571927 -0.17772755 
-0.18000858 0.4456754 -0.15716581 
0.16565181 -0.040347748 0.20069483 
-0.10633801 0.2871681 -0.2678316 
-0.2821802 0.10095883 -0.32550946 
-0.03307273 -0.2133407 0.18761481 
-0.028777037 0.29811332 0.07940541 
-0.00019536167 -0.10593398 -0.15877223 
-0.01437393 -0.20373458 -0.13987108 
-0.1790084 0.3250789 -0.08670262 
0.11556304 0.13931456 -0.30671123 
0.29386526 -0.12668493 -0.016081722 
0.1294745 -0.17420807 0.102301374 
-0.016238412 -0.35871965 -0.15227547 
-0.17579679 0.2709205 0.080501154 
0.006724109 -0.013219051 0.18308869 
-0.18260765 0.19319068 -0.26432365 
-0.07951896 -0.21097112 0.26423538 
-0.13808964 0.11871721 -0.06801054 
0.1928214 -0.24540482 -0.047414858 
-0.13583195 0.3012499 0.09465883 
0.26133996 -0.18210079 -0.061091393 
-0.13657235 0.3231532 -0.20409194 
0.21018335 0.21654876 0.025539298 
0.03563939 0.1734101 0.17237352 
-0.31455252 0.14680114 0.12668407 
-0.09933999 0.04292064 -0.06376236 
0.28473383 0.072339736 -0.13596502 
0.0023105042 -0.26862514 -0.1561777 
0.023516783 -0.19463162 -0.2156595 
0.052217275 0.3324404 -0.13895588 
-0.23082277 0.17233293 0.100362115 
0.027573675 -0.14182125 0.15813017 
-0.0947495 0.3021891 0.10304092 
0.294367 -0.1297632 -0.006659057 
0.1383202 -0.15022862 -0.24262583 
0.08483478 -0.06431769 -0.29684082 
-0.047835868 -0.014993112 -0.1690182 
-0.19391914 0.3309252 -0.14189923 
0.21800315 -0.26834556 -0.045034617 
-0.08340173 0.029279632 0.025763221 
0.2276535 0.032039795 0.13299951 
0.18723725 0.043548353 0.18004781 
0.05302591 -0.16573904 -0.23103431 
-0.18175668 0.25641552 0.10936407 
-0.07643138 0.051479332 0.04082048 
0.07330731 0.106470756 -0.31270593 
-0.12846227 0.15388957 0.09981681 
0.27643746 0.020131344 0.0872731 
0.12648232 0.23894966 -0.22998431 
0.16949622 0.250084 -0.17089623 
-0.09926781 0.04270288 -0.07067852 
0.17091632 -0.15586318 -0.24446723 
0.1044723 -0.13158707 0.16954312 
0.04950113 0.12028639 0.20826077 
0.11440031 0.08173272 -0.30074182 
0.1775345 -0.15120019 0.13857529 
-0.026329733 -0.05118896 0.05423724 
0.2938533 -0.19727357 0.18309253 
-0.16303213 0.08338697 -0.23899056 
0.17675607 0.14621934 0.14881837 
0.22604574 -0.009393891 -0.22307745 
0.19899356 -0.24174485 -0.04918981 
-0.0511821 0.32895437 -0.19614716 
0.23048195 -0.19162579 0.1588414 
-0.045536246 0.08718145 0.20460086 
-0.27505112 0.070897095 -0.2890862 
0.050282754 -0.09427651 -0.2755563 
0.22320674 -0.3214281 0.02976671 
-0.16719581 0.41669098 -0.20879318 
0.06285617 0.33242542 0.0077754045 
-0.15589537 0.14887236 0.097623944 
0.12386626 0.29988125 -0.08743465 
-0.10987917 0.32666785 0.056067068 
0.15852596 -0.21984513 -0.078702636 
-0.071928754 0.035092283 -0.26489845 
-0.21995507 0.049993422 -0.2720681 
-0.05148558 0.09421739 0.17315742 
-0.06733476 -0.013224825 -0.03344887 
-0.14089213 0.15587153 -0.06557315 
0.32235482 -0.18883866 0.004284118 
-0.03332664 -0.039074842 0.04922392 
-0.20511697 0.38134238 -0.11806838 
0.141384 0.12857278 0.17082787 
-0.13607945 0.117516 -0.045109965 
0.025499692 -0.011501159 0.22750182 
0.14123484 0.22142912 -0.2439563 
0.12616077 -0.065030955 -0.28740025 
-0.16086504 0.20731312 0.13633555 
0.29827648 -0.065332755 -0.074713714 
-0.0598423 -0.008489288 -0.042917546 
-0.22403432 0.38046777 -0.12509668 
-0.006596243 -0.0973566 -0.04586756 
0.33193505 -0.2907314 0.17676622 
0.27658764 0.14380492 -0.07142692 
0.17647235 -0.22239567 -0.04715053 
0.13292384 -0.18035965 -0.0199583 
-0.3400126 0.2223134 0.12404541 
0.017677747 0.32368594 0.03452499 
-0.1255052 0.114364475 0.06467748 
-0.29406583 0.13545436 -0.2948731 
-0.15346551 0.12842064 0.036258552 
0.22222628 -0.2864515 0.12441642 
0.119238086 -0.16858672 0.04024662 
0.15081866 -0.22540452 0.0021831412 
-0.110941365 0.085353054 0.06012692 
-0.14642793 0.14076778 0.007851561 
0.040842216 0.15289387 -0.3087236 
-0.038914226 0.07924395 -0.3373338 
0.02620205 -0.15834641 0.16789038 
-0.04262371 -0.16724041 0.27516815 
0.1661767 0.082671076 0.18845305 
0.09660533 0.14559671 0.18698756 
-0.116760306 0.35245422 -0.21739307 
0.122254685 -0.18014427 -0.00603385 
0.2176979 -0.2752456 0.09083067 
0.04889412 0.006486417 0.22410832 
0.11338511 0.19781958 0.15189897 
0.21095443 0.05218116 0.16486618 
-0.09576077 0.04275886 -0.10783089 
0.060171314 0.09135102 -0.3217055 
-0.0920703 0.15037262 0.15764901 
0.28439382 -0.1299654 0.0708797 
0.03533015 0.30415663 0.093924075 
0.021329531 -0.10759767 0.25510252 
0.3127996 -0.24257989 0.11823787 
-0.004549033 -0.16760974 -0.13071387 
0.112731464 -0.13633348 -0.2559265 
0.33301294 -0.33621085 0.09913373 
0.3186524 -0.05990368 0.010753026 
-0.33486208 0.23816428 0.06721769 
0.21671452 -0.29154685 0.10156814 
-0.00023686077 -0.22092773 -0.21134531 
0.08615835 -0.122257814 0.22940007 
0.038637813 0.29228094 -0.22007225 
-0.0018165412 -0.06753955 -0.20236318 
-0.17606089 0.30493912 -0.117887184 
0.02656902 -0.094154455 0.065617524 
0.155289 0.16869271 -0.24784581 
-0.046528682 0.005652609 -0.114986256 
-0.16888687 0.2279806 -0.26899832 
-0.042110708 -0.024418535 0.0289583 
0.26958817 -0.08388549 -0.12792294 
-0.006099283 0.35073978 -0.113115996 
0.20081006 0.25488713 0.04040048 
-0.17133579 0.2654347 -0.006104931 
0.18062666 0.058965415 -0.27299032 
-0.15157562 0.33875057 0.057981603 
0.15443279 0.27979267 -0.038954496 
0.14346221 -0.11944914 0.16488253 
-0.044438496 0.05264022 0.14900276 
-0.13586803 0.3181913 -0.22224663 
-0.29829103 0.09554232 -0.33336157 
0.28397962 -0.057455275 0.071918026 
-0.17014164 0.3004689 -0.14020129 
-0.10251799 0.38091105 -0.13980797 
0.23453401 -0.33796406 0.032438636 
0.3292831 -0.2695634 -0.043495316 
0.112374485 -0.21360765 -0.13381729 
0.18814433 -0.19134928 -0.14777845 
-0.21168865 0.41156754 -0.17017314 
0.18041658 -0.09674556 0.16137128 
0.30257413 -0.1519778 0.059708394 
0.29497477 0.024174795 0.014392531 
-0.01877228 -0.070880204 0.21334377 
0.15813804 -0.19709076 -0.16544197 
0.2329031 -0.16305599 -0.13649155 
-0.13082528 0.29165888 -0.21247223 
-0.04086519 -0.1368117 0.20593224 
-0.24783812 0.24902709 0.07069236 
0.21206477 -0.28281304 0.124572024 
0.08372993 0.30824703 0.014360125 
0.064684816 0.32812694 -0.12945645 
0.1971415 0.22898324 0.025082242 
-0.00602498 -0.06306449 0.09275445 
-0.11869757 0.1292459 0.1012967 
-0.1789539 0.46155018 -0.19425316 
-0.16317835 0.26851618 -0.1519419 
0.02963641 -0.04607693 -0.31708825 
-0.17392161 0.20736453 -0.026905842 
-0.23197494 0.071094066 -0.32677045 
0.06432863 -0.1048693 -0.26588035 
0.15914145 -0.13773412 -0.24254055 
0.14785667 0.24730383 0.08306857 
0.1909197 -0.05850146 -0.24869741 
0.060169708 -0.23622134 -0.12323838 
0.0061065136 -0.15021448 0.28466544 
-0.02058017 0.018191516 0.15662442 
-0.0949408 0.34188738 0.015671525 
-0.006502957 -0.042349484 -0.30140662 
-0.033185445 -0.011446086 -0.24565728 
-0.12532222 0.09090463 -0.008051348 
-0.052453082 0.13727783 0.21809234 
-0.04833399 0.19138235 0.17841507 
0.008883331 -0.0019068858 -0.3257229 
0.1407967 -0.18434489 -0.21521424 
-0.0031255367 -0.025717646 -0.26034167 
0.212272 0.018440554 0.16768196 
0.3475141 -0.33542404 0.027749721 
-0.020318357 -0.026247423 0.115325764 
0.0054188487 0.32589325 0.03853073 
-0.3094909 0.15326265 0.053728137 
0.19412528 0.24015649 0.055842236 
-0.017704694 -0.023158792 -0.2507377 
0.27422464 -0.060914382 0.052995108 
0.13381629 0.062416404 -0.3107923 
-0.03987305 -0.026864294 -0.1937662 
-0.078140065 0.37111884 -0.11340232 
-0.20899493 0.070088916 -0.30336034 
-0.024224557 -0.32299212 -0.12057891 
0.02647006 0.03532687 -0.3446642 
-0.024946745 -0.2115016 0.2083978 
0.1395259 0.2598165 0.06109094 
0.03150189 0.1199599 0.22454858 
0.06958193 -0.13889523 -0.032403614 
0.29711977 -0.028998733 0.032125507 
-0.22012106 0.24586344 0.082955204 
0.0013302295 -0.09354299 -0.19347154 
-0.20536464 0.4193633 -0.16412383 
0.032628737 0.29237226 -0.2170034 
0.3261587 -0.24796326 0.119178295 
0.24180387 0.18427244 -0.12168779 
0.28532296 -0.31739947 0.14753191 
-0.2907537 0.102128975 -0.29002437 
-0.09048022 0.08623652 0.11933589 
0.22192593 0.1244562 -0.21219534 
-0.21444738 0.37976614 -0.15865737 
-0.16320738 0.3546959 -0.19458967 
0.1226016 0.24306473 -0.2264233 
-0.011132256 0.006893688 -0.29734668 
0.16081244 0.19741547 -0.24545862 
0.16455296 0.019417742 -0.27331 
-0.22653787 0.24679275 0.047146853 
0.1696191 0.2367509 0.087029375 
0.16940452 -0.19707459 -0.13761437 
0.079050556 -0.14119568 0.14841308 
0.010017643 -0.3522402 -0.1942793 
-0.31497598 0.23510544 0.09390083 
-0.1889118 0.13341236 -0.3009346 
0.24632506 0.07654768 0.117526345 
0.04918787 -0.13460073 -0.0066008912 
-0.063111454 0.0047380035 -0.1412389 
0.040423486 -0.0930035 0.26083782 
-0.13055144 0.1349231 -0.2962658 
0.012582792 -0.083217956 0.1000662 
0.038995363 0.2926818 0.09093889 
-0.15785329 0.20312066 -0.053914137 
-0.07405092 0.034559216 -0.22800604 
0.039522067 0.2531741 0.13645816 
-0.22112209 0.168163 0.112269625 
-0.06476129 0.14528172 -0.34727758 
0.34157842 -0.24525286 0.049355693 
-0.1677158 0.3008492 0.048774287 
0.21224844 0.19143315 -0.17660776 
0.12939478 -0.1231451 0.17271197 
0.22197692 -0.041667614 0.1512854 
-0.006797508 -0.18914449 -0.11619568 
0.24191645 0.09758005 0.111753576 
-0.2101688 0.24544168 0.091270365 
0.31637454 0.042550728 -0.06855081 
-0.09081104 0.36556607 -0.1415569 
-0.17676573 0.44026217 -0.13881798 
0.022001933 0.1975142 -0.308112 
0.06284516 0.18480755 -0.28675795 
-0.14177668 0.32300103 0.06347157 
-0.013436925 -0.2075571 -0.19796768 
-0.33348417 0.22339204 0.06395428 
-0.09093003 0.3496065 -0.15314363 
0.19346513 0.23502724 -0.13595338 
0.26645812 -0.3142847 0.14105979 
0.1388587 0.015560554 -0.27693036 
0.26240957 -0.02515651 -0.19481425 
0.22453773 0.0059077432 0.18062146 
0.30830485 -0.20672885 -0.039880794 
0.19148022 0.25992718 -0.008093363 
-0.010228826 -0.073604986 -0.018559758 
-0.014320901 -0.0967392 0.26635295 
0.10214157 -0.1434359 0.06779699 
0.024025042 0.04593068 0.21900971 
-0.057253834 0.1987066 0.18950239 
0.12385628 0.01791806 0.22365803 
-0.11005452 0.35252807 0.025497872 
0.04134785 -0.055245344 -0.32475993 
-0.2993677 0.12860407 -0.3127713 
0.21322681 -0.31930932 -0.003109957 
-0.04624058 -0.257984 0.29293704 
-0.12391804 0.33368915 -0.19184822 
0.01976994 -0.062416896 0.23632514 
0.04534569 0.13644013 0.19796595 
0.23996904 -0.33223325 -0.016462184 
-0.024414886 0.2816602 -0.25982136 
0.13455784 0.24716227 0.08697541 
0.13765687 -0.11679162 -0.27442384 
-0.12067242 0.26885456 0.12575229 
-0.14782621 0.14879812 -0.089196734 
-0.15636598 0.33850458 0.011587274 
-0.09030796 0.17680101 -0.33101735 
-0.041041877 -0.042417374 -0.044907622 
-0.2491983 0.21899213 0.014286357 
-0.25814188 0.24146695 0.07382519 
-0.18504277 0.3402566 -0.10190579 
0.20618536 0.22547345 0.015431082 
-0.20240349 0.37875372 -0.15176812 
-0.036895297 -0.024330866 -0.15491888 
0.054208197 -0.11021169 0.041537955 
0.024617149 -0.14186859 -0.2073336 
-0.033207368 -0.22462973 -0.1414765 
-0.24751395 0.16130003 0.043692105 
0.04738769 0.21317396 -0.29021916 
0.18342954 0.16387144 -0.26342407 
-0.016010817 -0.1335614 0.15207528 
-0.17051926 0.3267506 -0.031202588 
0.059840146 -0.17180489 -0.09339916 
-0.12142555 0.28675222 0.11598525 
-0.14504485 0.41248628 -0.13449 
-0.039468758 0.026610391 -0.27816543 
0.015340757 0.35409275 -0.07757361 
-0.080989026 -0.17511815 0.27267942 
0.2018793 -0.16158307 -0.18838003 
-0.08900333 0.23842081 -0.32198355 
-0.08469331 0.18881463 0.18400188 
-0.14853662 0.35371995 -0.01061045 
0.19191608 -0.19736153 -0.13620034 
-0.2070031 0.06996987 -0.27418995 
-0.0037364075 -0.09583327 -0.15270624 
0.287867 -0.126426 0.08089191 
-0.16661255 0.35064396 -0.029509302 
-0.02464829 -0.29055667 -0.22181615 
-0.09929812 0.16085356 0.14637399 
0.22825098 -0.116767704 -0.1935294 
0.2421997 0.19074452 -0.10119604 
0.090808325 0.04859556 0.21992151 
-0.027972985 0.36097172 -0.11922074 
-0.0048442865 0.35006395 -0.02534356 
0.074668065 -0.07268255 0.25598857 
-0.055864252 -0.19179289 0.2202453 
0.30336976 0.08994543 0.0094077885 
0.054764405 0.33899763 -0.061724454 
0.071029924 0.3061455 0.028250383 
0.28220147 0.13175163 -0.110424474 
0.336266 -0.27437282 0.042668864 
0.07882987 0.31315944 -0.12125047 
0.23928115 0.20245458 -0.09774573 
0.27619058 -0.13234651 -0.06365593 
-0.01181317 -0.12750669 0.16037706 
0.1071794 0.18493704 -0.2792023 
0.3190188 -0.3377435 0.11921105 
0.12470897 0.30809033 -0.0186373 
-0.07152582 0.1133608 -0.30329484 
0.0940544 -0.09769468 0.24299845 
0.29138818 0.11710102 -0.022409 
-0.10715535 0.22963709 -0.30349234 
0.0039280583 -0.039359007 0.23068444 
0.12012288 0.076541916 0.20069446 
0.14439197 -0.027632412 -0.27805674 
0.30823392 -0.19108039 0.15027331 
-0.15071994 0.40792212 -0.12310516 
0.30371067 0.09508091 -0.029624766 
0.1402379 0.11942208 0.17861061 
0.13731003 -0.1987799 0.06396409 
0.23837934 0.19099613 0.014435918 
0.2570526 -0.17555217 -0.060419668 
-0.013408965 -0.04793396 0.08467858 
0.004941642 -0.06295663 -0.0011881001 
-0.15498449 0.15227216 -0.0024391038 
-0.17231031 0.33539423 -0.06266181 
0.06684028 -0.14951518 -0.2395753 
-0.053766396 0.37169516 -0.061930224 
-0.008760663 -0.014946919 -0.27792448 
0.20891681 -0.09090897 -0.19515955 
0.15209198 -0.031357367 0.23211554 
0.16381384 -0.19632654 -0.12156279 
-0.14757046 0.16939515 -0.06926844 
-0.08201497 0.2742839 -0.27980027 
-0.008170493 0.06674859 0.22604749 
0.30935767 0.08651484 0.002384697 
-0.049495645 -0.15169731 0.26209244 
0.16964895 0.17885716 -0.23650725 
0.0060030464 -0.089185126 0.110484704 
0.07659703 0.07559333 0.21654393 
-0.3329534 0.2010378 0.065426506 
-0.19678406 0.47139668 -0.17323507 
-0.09838696 0.07253922 -0.22585374 
0.33934975 -0.29666215 0.14493461 
-0.020805037 0.30898184 0.06375372 
0.2599506 0.13008098 -0.12705418 
-0.36323798 0.20649016 0.08851754 
0.30896637 -0.051226713 -0.033276096 
0.009039243 -0.14643858 0.15090747 
-0.024041843 0.024276977 -0.33381036 
0.22043875 0.15887673 0.10461189 
0.09154117 0.21854568 0.13553466 
-0.16633542 0.29353708 -0.08028071 
0.24593791 -0.24170655 0.14803973 
-0.085119724 0.10253428 0.13039711 
0.05988907 -0.2393863 -0.20593591 
-0.0536323 -0.26152828 -0.1518913 
0.14585006 -0.007975845 -0.28545043 
0.09665025 0.09764901 -0.30653012 
-0.034984265 0.0037814435 0.14450108 
-0.012468271 -0.20079328 0.30128628 
-0.078116536 0.22506697 -0.32924137 
-0.03232998 0.024366973 -0.29040733 
0.2555808 -0.3018227 0.063989684 
-0.16652852 0.14668943 0.0064017163 
0.22460656 -0.015162952 0.1771206 
0.08025588 -0.13081206 0.052159533 
-0.05579233 -0.17374724 0.23014876 
0.19148552 0.1593403 -0.23664077 
0.22401352 -0.06849636 -0.1976361 
-0.045090266 -0.24850184 0.28508505 
-0.17636871 0.3219638 -0.04133364 
-0.020283295 -0.057694986 -0.14196889 
0.06297627 -0.06816102 -0.29727834 
-0.0857582 -0.18004543 0.28420606 
0.089914925 0.30721194 0.020578953 
0.0011138702 -0.05022908 0.22553025 
-0.02643251 -0.097141474 0.18229079 
-0.06129184 -0.009554236 -0.014385938 
-0.07731926 0.061660536 0.09758294 
0.2368363 0.024358973 -0.21012223 
0.08971056 0.025239447 0.2330309 
-0.12625097 0.11128999 0.035519686 
-0.35157627 0.18044104 0.060755353 
0.34334534 -0.20147006 0.10748684 
0.19401248 -0.17742735 -0.12189628 
-0.10402323 0.13933559 0.120551474 
0.1781823 0.24531004 0.029180273 
0.2771335 -0.11861343 0.10149526 
0.1255063 0.19990276 0.1463901 
0.15394539 -0.23216437 0.061414752 
-0.20965715 0.3710221 -0.13044733 
0.2508219 0.022219118 -0.19550806 
0.18131743 0.18633017 -0.18178482 
-0.061292183 -0.02661882 -0.07949698 
-0.072981074 0.0142935645 0.034953672 
-0.014885386 -0.05705368 0.14353687 
0.11767202 0.22393975 0.128982 
0.02441677 0.25876895 0.1298592 
0.2164047 0.039557606 0.17126095 
0.34120294 -0.29825562 0.017470637 
0.21691635 -0.06851788 0.14872415 
0.26066107 -0.1358661 -0.10527887 
0.027952913 0.21805556 0.16144952 
-0.039237496 -0.0029081302 -0.2496211 
-0.05115392 0.2265093 -0.3264866 
0.096135594 0.13253732 -0.29876983 
-0.15021093 0.120045684 -0.1551972 
-0.18133663 0.27487332 -0.032546468 
0.07749544 0.306334 -0.12202461 
0.14107172 -0.1863922 -0.030988825 
0.052665878 0.30551895 0.028720371 
-0.3332958 0.18741113 0.038990784 
-0.01949114 0.0055657295 0.15210296 
0.16368435 -0.13969159 0.13238186 
-0.12804511 0.10014451 -0.08152944 
-0.0048362166 -0.04931614 -0.25001147 
0.05865562 -0.12674308 0.23592305 
-0.14831361 0.24140045 -0.1211309 
-0.025609404 0.032216836 -0.3202275 
0.12702975 -0.06629814 -0.27069592 
-0.19418411 0.2743439 0.046043016 
-0.15718043 0.21998844 0.14496735 
-0.008062862 -0.20651552 0.27528387 
0.06503384 -0.122514 0.04412314 
0.005668608 0.0055195857 0.20880426 
0.12590374 0.006226686 -0.3104702 
0.022690441 -0.101799585 -0.21376961 
0.32139838 -0.23736715 0.16584487 
-0.13303822 0.40088403 -0.15131564 
-0.17795113 0.4115421 -0.17361909 
0.22349998 0.21700507 -0.02041754 
0.085827336 0.26446998 -0.22352113 
0.21096438 0.1025381 -0.23801744 
0.11552814 -0.04319828 0.2235999 
0.257282 -0.33736688 -0.029487245 
0.025318043 0.3644085 -0.12507568 
-0.2241858 0.26573008 0.08946393 
0.2946886 -0.118025355 0.01700885 
0.23837702 0.03216316 -0.20917708 
-0.055255566 -0.014615655 -0.10850423 
-0.035645545 0.07484649 -0.35817096 
-0.07612932 0.1288423 0.16999896 
-0.017608216 -0.00985017 -0.2723268 
0.19204965 -0.25683108 0.16279967 
-0.090523235 0.03224906 -0.02761712 
0.11123514 0.14523564 0.16825807 
-0.032454766 -0.056388512 0.015688509 
0.03838885 -0.25847337 -0.12819147 
-0.0016580047 0.08966207 -0.34997556 
0.19894245 0.059038773 0.16831431 
0.30636683 0.048516765 -0.023283435 
0.17253393 -0.17457849 0.13879588 
-0.032036416 -0.053515643 -0.08895538 
-0.14215922 0.079375565 -0.25280857 
0.05492251 0.26851773 -0.22426602 
-0.07633886 -0.20791104 0.22874005 
-0.21927989 0.064169556 -0.33053124 
0.255455 0.16729674 0.017655727 
-0.090190835 0.31183207 0.103163704 
-0.21029973 0.36765003 -0.14330019 
-0.30459267 0.12350715 -0.32116112 
0.2915531 0.08498148 -0.07814131 
-0.16981144 0.25293234 -0.052375533 
0.042416867 0.27471438 -0.2581551 
0.03353811 -0.1092399 -0.001995904 
-0.09417635 0.052202493 0.032885514 
-0.005926418 0.29923162 0.06967137 
0.082126014 -0.21273012 -0.22080542 
-0.1527537 0.41476393 -0.17739655 
-0.2644228 0.24441376 0.05701413 
0.19621691 0.2336621 0.029913515 
-0.0023872568 0.06007149 -0.34970185 
0.3549291 -0.36532578 0.056825507 
-0.20541237 0.43741778 -0.18672347 
-0.092100725 0.23428074 -0.32284695 
-0.079890616 0.2772516 0.11542305 
0.2467715 0.08607061 -0.18223913 
0.18807992 0.21618344 0.060413927 
0.27037856 -0.17301565 -0.04201901 
-0.0020650441 -0.08687349 -0.15287048 
-0.22619052 0.13767229 -0.30687964 
0.2803153 0.1309865 -0.070117906 
-0.009979829 0.112673566 -0.34661686 
-0.1134663 0.3510175 -0.19571453 
0.1761461 -0.19998452 -0.10213369 
-0.07746549 0.13759929 -0.33797732 
-0.11667722 0.07911351 -0.08843688 
0.047080472 0.33930045 -0.028135467 
-0.15636024 0.14732036 -0.027999327 
-0.18219538 0.15840034 -0.21273813 
-0.13181816 0.37674975 -0.17488061 
0.23604105 -0.036858264 0.13785337 
-0.04688843 0.2042304 0.1820249 
-0.119526245 0.33727652 -0.23288551 
0.20771904 -0.14285989 -0.20512998 
0.13245015 -0.19128445 -0.013067357 
0.079337165 -0.13650228 0.029101709 
-0.15515743 0.25708178 -0.112498954 
-0.116692275 0.35501742 -0.19588292 
0.013771911 -0.16036189 0.16127282 
0.15721706 -0.22541212 0.02972607 
0.013834178 -0.07318755 -0.22535075 
0.24997723 -0.10796108 -0.12725781 
-0.11355612 0.29766625 0.10653009 
0.21903048 0.21741097 -0.16955394 
0.07157381 0.049640805 -0.30909073 
-0.28605723 0.15985486 0.1284716 
-0.09546343 0.38107783 -0.14212662 
0.101444066 0.00022009958 -0.30794242 
0.12832445 -0.18829998 -0.03838029 
0.26186335 0.07071582 0.1091745 
-0.17069781 0.21092544 -0.25403273 
0.18565048 -0.06137791 -0.25742614 
0.049779214 -0.08756781 -0.2992719 
-0.017615069 -0.0646157 -0.011442364 
0.17941198 -0.093420096 -0.23326685 
0.1737484 -0.1843234 0.12221855 
-0.10865856 0.097580716 0.08638056 
-0.2658979 0.15193415 0.05521745 
0.2735774 -0.10244195 0.0533746 
-0.10724762 0.34756565 -0.0039601526 
-0.32833865 0.1883729 0.0752132 
0.1015154 0.31236327 -0.12663846 
0.129573 0.015676592 0.2163873 
0.16838373 -0.24385794 0.08876943 
-0.15989365 0.3571789 -0.01901526 
0.28012288 -0.10591862 -0.08746919 
0.31576404 -0.055011537 0.029339109 
-0.033618074 0.055857968 -0.3163789 
0.044755198 0.29431006 0.0739957 
0.2618383 -0.35363582 0.051866904 
0.0045347 0.28987455 0.064864576 
0.07089781 0.027567483 -0.32037956 
-0.34528348 0.2127361 0.1298932 
0.26176962 -0.3181559 0.10394633 
0.16313322 -0.08428389 -0.27784383 
-0.007431101 0.26626763 -0.26805037 
-0.10629535 0.05348117 -0.07683399 
0.01791098 -0.21508567 0.2803375 
0.1297 -0.051559776 -0.29153073 
-0.06978654 0.11065366 0.13813516 
0.057379898 0.28716898 -0.22668402 
0.01820594 0.15255226 -0.33724728 
-0.009073265 0.3622328 -0.10476126 
-0.055097595 0.3635726 -0.09170281 
0.30131096 -0.07769598 0.0032947273 
-0.13918999 0.34236038 -0.21059604 
-0.15962054 0.254791 -0.11804476 
-0.07505027 -0.21853888 0.2463059 
0.07539599 0.12280354 0.20833409 
0.27328402 -0.33258703 0.10187332 
-0.051555026 -0.007383737 -0.18069929 
0.020123458 -0.20261347 0.27035612 
0.30425206 0.044237234 -0.113626786 
-0.011413334 0.2528202 -0.27235514 
-0.11238914 0.1636418 0.13472565 
0.25235602 0.03939387 0.14655018 
0.34932613 -0.33563396 0.10481112 
-0.010243638 -0.36109668 -0.14087497 
0.061952323 -0.11575081 0.05377618 
-0.051142514 -0.20664652 0.31964585 
0.3021766 0.06343197 0.020359384 
-0.027667426 0.17051508 0.19180426 
0.3559538 -0.3155137 0.037854254 
0.23633072 0.16415088 0.08774969 
0.16221887 -0.11861105 0.117411025 
0.30372488 -0.011389324 0.033735305 
0.2587008 -0.01988259 -0.20657247 
0.14586487 0.06291907 -0.28298762 
0.063125506 -0.11597405 0.06011579 
0.31834844 -0.3482386 0.094908565 
-0.038799275 -0.29721645 -0.14032601 
0.05254917 0.29005167 0.05606163 
0.18156111 -0.18499781 -0.199201 
0.036877047 -0.18084435 0.24385099 
-0.053864397 -0.2732273 -0.20060983 
0.2495979 0.16672789 0.015343659 
0.038555562 0.29949373 0.045660894 
0.10268727 0.31051072 -0.10663941 
-0.11319159 0.14227085 0.12416769 
-0.29516214 0.238714 0.09669169 
0.3451156 -0.31844768 0.016523592 
0.054603547 0.050904896 -0.30866492 
0.04680013 0.09190331 0.2264285 
-0.1682552 0.3444762 -0.05303806 
-0.0036930135 -0.12258823 -0.13171425 
-0.1334044 0.11514253 -0.07957628 
0.10880454 0.007521675 -0.29723588 
-0.06992111 0.34305972 -9.403238e-05 
-0.046962123 -0.2646121 -0.1599763 
0.11422283 -0.1103202 -0.276462 
-0.062349796 -0.27293822 -0.16892353 
-0.33963946 0.15813789 0.124295235 
0.24700727 -0.15995175 -0.119424246 
-0.13026571 0.12132771 0.017653825 
-0.17875718 0.19311374 -0.2136954 
-0.16546932 0.19808729 -0.1724115 
-0.20889314 0.2655465 0.05244999 
0.014934506 -0.08252777 -0.26497585 
0.23780079 0.19120803 0.021514462 
0.14787568 0.056249604 0.18185058 
0.27226958 0.061390914 0.103174806 
-0.038459703 -0.045628626 0.0063818516 
0.16304067 0.15178633 0.15487233 
0.12529352 -0.1812964 -0.067357324 
0.0028933848 0.3492457 -0.10256095 
-0.056423876 0.14740145 0.20418179 
0.30208296 -0.19710739 0.17232527 
-0.15362474 0.20664927 -0.11523968 
-0.20398813 0.061038226 -0.24751416 
0.30523807 -0.20702924 0.1652809 
-0.07404725 0.005485626 -0.0473074 
0.31819096 0.02228399 -0.06799033 
-0.23772217 0.0707027 -0.26313382 
-0.17839046 0.11300166 -0.30499575 
-0.18603462 0.16009203 0.031134948 
-0.08872445 0.3547031 -0.008708952 
0.013060333 0.27756852 -0.25231346 
0.11887057 -0.18367828 -0.22526133 
0.16495427 -0.11388183 -0.2523515 
-0.03512301 -0.22260419 -0.17943718 
0.030338805 -0.16972888 0.2719521 
-0.11647065 0.30506772 0.08101949 
0.22104308 -0.04666804 0.1485692 
-0.030211233 -0.20547573 0.19979297 
-0.14077975 0.1507207 -0.31009167 
0.30549282 0.0030693254 0.006019842 
0.28528267 -0.110196546 0.015943153 
0.08428885 0.18965514 -0.28901267 
0.13199759 -0.10340839 0.19813713 
0.2251804 -0.04035237 0.14271942 
0.19953164 -0.27237338 0.07002937 
-0.067778565 -0.0020482333 -0.006781798 
0.30096158 -0.050804064 -0.12819466 
-0.16192007 0.20361154 -0.22156638 
0.07387883 -0.23761383 -0.1924666 
0.054078344 0.22469744 0.12279277 
0.28854755 0.088206984 -0.10987154 
0.0028868888 -0.32103837 -0.2101315 
-0.19209923 0.3745855 -0.09246732 
-0.008233825 0.33290526 -0.007510489 
0.1257804 0.0751324 -0.29414928 
-0.26817316 0.1898541 0.11853642 
0.25105485 -0.036231313 0.110129364 
0.2561237 0.08797556 0.09484149 
-0.124141455 0.1493833 0.12134096 
-0.20879087 0.10022339 -0.31638333 
-0.32131535 0.24181533 0.053336203 
-0.028842658 -0.15126708 0.272581 
0.12325215 -0.11153469 -0.27182186 
-0.034629364 0.35062662 -0.13678728 
0.18531099 0.0425119 -0.25545332 
0.019399427 -0.09374151 0.2760576 
0.015973939 -0.012176179 0.22228828 
-0.027154211 -0.055681776 0.045064542 
-0.07776726 0.026182448 -0.17747374 
-0.16411556 0.19974095 -0.17579295 
-0.20090789 0.28967515 -0.03453788 
-0.14453493 0.38548824 -0.06969108 
-0.06075931 0.2167022 0.18435284 
0.34329402 -0.31465062 -0.0020545805 
-0.16516149 0.42671007 -0.19957691 
0.2022229 -0.3012294 0.03957218 
0.3442926 -0.26083228 -0.034429666 
-0.051350016 -0.035568953 -0.01768991 
-0.16245627 0.16696143 -0.009014286 
0.007305287 0.3626925 -0.08187731 
0.000506978 -0.014910628 -0.31766695 
-0.05691019 0.02141135 0.11726773 
0.25929043 -0.2628795 0.17653851 
-0.0733734 0.35051817 -0.1625233 
0.2212613 -0.28009322 0.10268686 
-0.174251 0.3332529 -0.0661184 
0.05232049 -0.08831858 -0.28179926 
-0.0048246807 -0.06638152 0.032832373 
-0.120502144 0.25473118 -0.20523366 
0.2377017 0.16606301 0.06603237 
0.15617928 0.23494038 0.09294063 
0.2998868 -0.30256417 0.13311839 
0.13273677 0.18342523 -0.26373085 
-0.1599242 0.26393962 -0.1069334 
0.3009669 0.029983222 -0.12332722 
0.15768382 0.122974396 -0.28077373 
-0.0067636822 -0.155722 -0.18906078 
-0.034020208 -0.2700635 -0.21283709 
0.1510637 0.14925027 0.16767117 
-0.18143599 0.16490832 0.09010729 
-0.007311886 -0.16803084 -0.15116526 
0.33250335 -0.21809734 0.15004711 
0.2026495 0.17938069 -0.19856182 
-0.084864296 0.30439174 0.10952943 
0.2887383 -0.1150249 -0.00094453804 
0.31632662 0.0044055404 -0.026204553 
0.2776096 -0.14669023 0.0806697 
-0.0063154283 0.35293037 -0.10759771 
-0.02373606 -0.32388318 -0.16746941 
-0.20811819 0.45441103 -0.16674227 
0.19596143 -0.24940108 0.120065436 
0.17848681 0.15572944 0.14251268 
-0.060274012 0.09441806 0.16986133 
0.02270608 0.3395055 -0.12867571 
0.24827954 0.012256722 -0.19697398 
-0.3274818 0.17640734 0.09935841 
-0.16229607 0.18394585 -0.024283808 
-0.17826295 0.4406114 -0.19586645 
0.13140185 -0.12111852 0.20629644 
-0.33182082 0.16079314 0.09538471 
-0.04271691 0.23620538 -0.30213255 
0.11842683 0.043229148 -0.30287132 
-0.16580915 0.0759636 -0.23351978 
0.290845 -0.19167383 0.16935979 
-0.13522753 0.22784916 -0.27124855 
-0.2239702 0.4107476 -0.15495059 
-0.03657064 -0.24532716 0.23700158 
0.22640847 -0.12523206 0.12809643 
-0.21344589 0.38201645 -0.14243054 
-0.16970626 0.2027661 -0.21373352 
-0.021786962 -0.22981685 -0.13333797 
0.20504704 -0.03078648 0.16957597 
-0.0042508966 -0.23618264 0.240996 
0.31964132 -0.23231494 -0.046892844 
0.012837302 -0.17910624 0.17939845 
0.34683397 -0.29531783 0.045331754 
0.2891596 -0.094036385 -0.056459688 
-0.004883366 -0.08284522 -0.030188171 
0.23795216 0.1149854 -0.17316131 
-0.007839107 0.20015539 0.18604451 
-0.028789405 -0.23223612 -0.18223982 
-0.018484736 -0.04003289 0.19565272 
-0.16248503 0.41636357 -0.20912778 
0.16405486 0.27012962 -0.03243559 
0.19773735 0.038802233 -0.2528208 
0.10917829 -0.06286904 0.22953239 
0.15742852 0.18457544 0.12584823 
0.24520706 -0.12279756 -0.12314632 
0.25295845 -0.18279387 0.16046146 
-0.042997234 0.3686007 -0.09616301 
-0.20877928 0.4467031 -0.15529828 
0.27645174 -0.13148847 -0.045135535 
0.046187866 0.32648516 -0.17025945 
0.18768068 -0.26538146 0.0643706 
0.28800166 -0.026213866 -0.112996735 
