0.21706544 0.0022408655 -0.14325927 
0.049724706 0.039714318 0.040942233 
0.43253294 -0.075456046 -0.15549669 
0.38623264 0.008569463 -0.152483 
-0.28563997 0.083098575 0.08627248 
0.2896427 0.05471964 0.13913387 
-0.081933886 -0.0006695841 -0.14699861 
0.23689242 -0.0016851253 0.096416764 
0.05307547 0.00716265 -0.05821711 
0.43099615 -0.09149439 -0.14220248 
0.39191067 0.09267965 -0.1160175 
-0.27913576 0.06190996 -0.064103 
-0.35424772 0.025779493 -0.11464116 
-0.12676284 0.026392953 -0.039555665 
0.14142124 0.020619148 0.13251302 
0.060026105 -0.011099127 -0.1551501 
0.489495 0.018280022 -0.17586125 
0.3803694 0.094645046 -0.13722537 
0.106002994 -0.007497108 0.091045246 
-0.20486082 0.06354066 -0.044160996 
0.16760817 0.055222318 0.08793761 
-0.3003314 0.0678766 0.107119255 
0.13198768 0.029567366 -0.10035185 
0.25226864 0.0009735909 0.13071333 
0.2898356 0.064099275 -0.07936135 
-0.2159786 -0.006456523 -0.1426359 
-0.15101835 0.023660416 0.041444298 
0.22088274 0.06910159 -0.1151571 
-0.25491348 -0.006891797 -0.024025328 
0.2612731 0.063497886 0.0807234 
0.06425376 -0.012589381 0.15427232 
-0.30865496 -0.018334314 -0.09240128 
-0.19068153 -0.008849283 -0.12317433 
-0.09045222 -0.014637685 -0.098268956 
-0.40916178 -0.014229356 -0.1106107 
0.16215144 -0.014970721 0.09085675 
-0.2790673 0.0088172695 0.004912229 
-0.34815982 -0.058749963 -0.14378494 
-0.08167502 0.023448259 -0.0117251165 
0.12429832 -0.031040981 0.0842459 
0.23503186 -0.004944024 0.014432699 
0.3010342 0.063321285 -0.13257864 
-0.14967608 -0.017558938 -0.09887812 
-0.038761254 0.027640656 0.07348794 
-0.39725876 -0.04926371 -0.10220985 
0.108156204 0.006278474 -0.096024655 
-0.008852 0.000769319 -0.13976452 
0.26810387 0.069419876 0.027961364 
0.1141047 0.042361733 -0.1294398 
-0.2363821 0.06381917 -0.13202997 
0.27114707 -0.030810077 -0.13489209 
0.0902929 -0.01686303 -0.027043093 
-0.49619138 -0.0037161685 -0.14774361 
0.3462459 0.09081421 -0.13735627 
0.16190077 0.035451822 -0.045182902 
0.014565972 0.019043509 -0.10598465 
-0.19225395 0.0644112 0.03526452 
0.06733481 -0.0041433903 0.004823218 
-0.49517435 0.011776569 -0.10111587 
-0.439883 -0.04988651 -0.13602966 
0.18917415 -0.003235279 0.038991284 
-0.36488158 -0.08080069 -0.14208813 
0.04828328 0.015438793 -0.04774074 
0.102428794 0.028925031 0.037273444 
0.10621226 -0.010452143 -0.01392398 
0.10850392 -0.012182899 -0.047679007 
0.14327078 -0.024135418 0.14134447 
0.29022792 0.07268923 0.010811256 
0.30778584 0.060935058 0.00515565 
-0.08274132 -0.017085642 -0.13584624 
0.1719109 0.032203812 -0.12988591 
-0.19110982 -0.0050203567 0.07083711 
0.3119706 0.055271517 -0.031710096 
-0.17127177 0.022456555 -0.045989785 
-0.16157463 -0.008560843 0.13487267 
0.059483334 0.019282019 0.18386668 
-0.27730283 0.009423074 -0.016268535 
0.22438185 -0.0060384655 -0.08203122 
0.17025642 0.028377282 0.12970299 
-0.0741433 0.0078314105 -0.15554093 
-0.24182639 0.05922479 -0.11454156 
-0.27533457 0.026147818 -0.15162417 
-0.2212564 0.004820133 0.113199756 
0.009635213 0.0066093747 0.14813557 
-0.12384816 0.027389204 -0.063011184 
-0.26865664 0.06433178 -0.0027498621 
-0.33240774 -0.011840126 -0.09434527 
-0.310654 0.05513652 -0.103053205 
0.4139706 -0.073981375 -0.10299367 
-0.17222264 0.034521263 0.14185774 
0.105513275 -0.02178056 0.11849956 
-0.43157783 -0.009805874 -0.15210648 
0.18634444 0.056502655 -0.1389739 
-0.30767646 0.05782619 0.11981823 
0.43002313 0.06521673 -0.12670355 
-0.18726669 0.05833342 -0.107427284 
-0.4671094 0.0482806 -0.13546151 
0.3625631 0.03662952 -0.112541445 
0.12672395 -0.018780213 0.025956957 
0.23054527 -0.00089596224 0.12348773 
-0.02266866 0.025525317 0.16574219 
0.3638167 0.05282735 -0.12322843 
-0.09991987 0.013703712 -0.113491215 
-0.2930609 0.029944768 0.009082443 
0.143037 0.025567405 -0.06811334 
0.47309735 0.04561523 -0.12058347 
0.34917584 -0.07159716 -0.114758156 
0.19084857 0.0518502 0.14903405 
-0.23901182 0.06199906 -0.012999428 
0.46962184 -0.049767718 -0.142096 
-0.06707744 -0.01903034 -0.041026175 
-0.22342679 0.063804045 0.11876351 
0.33805156 0.06529776 -0.15574023 
0.0037146078 -0.017921744 0.11148353 
-0.077270366 0.028517732 0.1325012 
0.40357095 0.006178847 -0.11516264 
-0.10339086 0.0145485215 0.10067436 
0.28439307 0.015383794 0.08325595 
0.37102324 0.0902553 -0.10723849 
0.28548962 0.06458064 -0.10933895 
0.19650261 0.07010384 0.00036525627 
0.35345945 0.103910856 -0.14560744 
0.16190468 -0.019614685 -0.107254244 
-0.4402492 0.059298776 -0.14526941 
-0.42480046 -0.085253805 -0.15125804 
-0.2539636 0.0018578758 0.10354446 
-0.015397674 -0.017193368 0.1440595 
0.14551286 0.018485123 0.054411292 
0.29654914 0.019680737 -0.14891754 
-0.27824396 0.04979043 0.14626968 
0.43063238 -0.112980515 -0.14509508 
0.035292104 -0.015499913 0.12554848 
0.21062844 0.06338894 0.13253865 
-0.012186955 -0.019766672 0.14134932 
-0.19887875 0.01977543 0.14151852 
0.16341496 0.02866522 0.124339074 
-0.12638336 0.025085023 0.043348007 
-0.3118695 0.056804817 -0.065061316 
-0.20486583 0.06011311 0.019888118 
0.30534416 -0.043113533 -0.13800947 
-0.3619308 -0.06789628 -0.10439235 
-0.17324291 0.036842085 0.074020036 
0.07383517 0.015562855 -0.002222072 
0.34958723 -0.072856605 -0.123195276 
-0.19985107 0.06847423 -0.0844132 
0.1989237 -0.008541468 0.14541431 
0.25086576 0.06351541 0.13639347 
-0.1953135 0.06943339 0.047390565 
0.30108926 -0.00680887 -0.09875339 
0.44147503 -0.09671305 -0.12344448 
0.38995185 0.096889295 -0.113280796 
-0.3185781 0.061838627 -0.06566901 
-0.035782196 0.0218305 -0.06244495 
0.23378122 -0.0036823961 -0.11770914 
0.26511374 0.069536045 -0.14333801 
0.18769096 -0.0101328585 -0.021396022 
-0.14109997 0.029228747 -0.11218481 
-0.37257147 0.077016264 -0.15418293 
-0.06808573 0.024462622 0.039944623 
0.11796795 -0.009484339 0.029296482 
0.17440122 0.033334732 -0.047015805 
-0.087996826 0.025744142 0.11600103 
-0.44915444 0.047964964 -0.10434017 
-0.42475525 -0.1057981 -0.11462661 
-0.28469107 0.0639643 -0.06745649 
-0.42546073 -0.11099491 -0.13581333 
0.1983577 -0.0060824757 -0.042312216 
-0.26622728 0.040865675 -0.15092698 
-0.2714307 0.06408222 0.14515314 
0.19722046 0.022248272 0.15311548 
-0.21652512 0.012226875 -0.14281859 
-0.48194107 0.042485684 -0.09356068 
0.39586088 -0.077453904 -0.15515257 
0.2956045 0.06325127 0.00708091 
0.48082367 0.056155812 -0.12211403 
0.06402026 0.02203827 -0.09375568 
0.39339587 -0.027632399 -0.11930906 
0.2032709 0.0074920263 -0.12795904 
0.425298 0.040681556 -0.1228441 
-0.40569904 0.030849604 -0.14318095 
0.40923533 -0.10891426 -0.13194396 
0.058011353 -0.013042946 0.054040983 
0.104842834 -0.01700744 -0.120565005 
-0.3013737 0.05986357 -0.09608678 
-0.30514076 0.04458429 0.11123633 
0.31143588 -0.032732006 -0.14894462 
0.16257294 0.029450037 0.018457372 
-0.2975604 0.027632436 0.07637368 
-0.10368619 0.019780515 -0.006470642 
0.31972754 0.058744177 -0.109597124 
-0.08792389 -0.017189888 -0.017703572 
-0.4012068 -0.020257143 -0.10773444 
0.112920724 -0.016639385 -0.0733272 
0.29122913 0.02180503 0.08774203 
0.20718484 0.060902473 0.071402855 
0.07515477 -0.018491063 -0.12890747 
0.054284167 -0.014291119 0.05348071 
-0.17343095 0.043179184 0.12637796 
0.120026685 0.027792037 -0.010344644 
-0.43597716 -0.016868439 -0.13433452 
-0.049501188 0.0169317 -0.14985664 
0.0783795 -0.009899472 0.060124952 
-0.28686082 0.062238913 -0.10760256 
-0.39906135 -0.09390686 -0.15260625 
-0.40780962 0.016293438 -0.1479181 
0.075334884 -0.014485134 -0.0069922865 
-0.17798758 0.051497344 0.030410005 
0.38223615 0.09678603 -0.11023225 
0.49125358 0.034506656 -0.10477611 
-0.26728287 0.00033522813 0.07677996 
-0.19654097 0.060366325 -0.030193808 
-0.15924385 0.030157855 -0.031280085 
0.04185431 0.026617927 -0.12120333 
-0.23064966 0.013511962 0.06692276 
-0.428373 0.0405953 -0.10108967 
0.21177872 0.07036911 0.10320624 
0.39988044 -0.019009607 -0.14840806 
-0.38958916 -0.09693239 -0.13924547 
0.3656516 -0.056705214 -0.10486832 
0.0113239605 -0.014181744 -0.12328216 
-0.36571467 0.0031362856 -0.15051147 
0.45336223 -0.07380794 -0.10671126 
-0.33907354 -0.06631163 -0.10467848 
0.12457789 0.025718104 0.11735395 
-0.4582667 -0.06886417 -0.10123014 
0.237525 0.06320059 -0.10608121 
0.16361016 0.022564024 -0.14628914 
0.4451406 -0.09124459 -0.140003 
0.32241008 0.0022477917 -0.11567044 
0.040781923 -0.013031144 -0.15558113 
0.11521082 -0.012195298 0.104685634 
0.34435937 -0.07231057 -0.13379887 
-0.0058567906 -0.016482525 0.14321692 
0.11187503 0.005068169 0.14801319 
0.13456942 -0.01733462 0.14824954 
-0.13811265 -0.015638027 0.0735356 
-0.08649489 -0.0065856124 -0.15333217 
-0.019154454 -0.01964226 -0.097379856 
0.18361478 0.06359329 -0.11761278 
0.1757234 0.04707728 0.08289788 
-0.14505054 0.027537487 -0.13076515 
0.40373418 0.086409695 -0.113441736 
0.30740097 0.06619797 0.12675664 
-0.09199907 0.025768975 0.036544334 
-0.17685853 0.039830692 0.12302098 
-0.10609884 -0.027432274 0.07236943 
-0.3094535 0.052001484 -0.022695359 
0.13366294 0.02595192 0.1396845 
0.011104864 -0.019203207 -0.1372506 
0.032266717 0.019054063 0.0582449 
0.22312719 0.036645718 -0.15289618 
0.045904573 0.017520532 -0.059738044 
-0.33069944 -0.003078761 -0.10381811 
0.40171176 -0.009984337 -0.12739457 
0.2928523 0.010274221 -0.099782914 
-0.4913726 0.015367349 -0.15375614 
-0.19416957 0.06142002 -0.11608931 
-0.28300035 0.025892401 0.006947639 
-0.27651522 0.05600293 0.06960433 
-0.38301712 0.101265274 -0.15144785 
-0.08369363 0.02236594 -0.100539304 
-0.08297689 -0.0050991448 0.024328977 
0.076655194 0.017097393 -0.14925684 
0.08360237 0.025883371 0.07825659 
0.4239744 -0.106135875 -0.095247746 
-0.4635527 -0.051059682 -0.0958248 
-0.46203652 -0.057903986 -0.10425347 
-0.40019384 -0.019586843 -0.11451181 
-0.17198764 0.039057817 -0.0063728914 
-0.32888904 -0.0017346607 -0.10825533 
0.16507022 0.026618928 -0.034538113 
-0.08084871 0.02029639 0.084332205 
0.4715358 -0.0404649 -0.104143105 
-0.41602606 0.045118473 -0.114723675 
0.29230434 0.06259215 0.10114736 
-0.35428283 0.042836297 -0.15981972 
-0.21712714 0.0623763 -0.056652084 
-0.06618489 0.036722 0.09334645 
-0.31049562 0.05127878 0.068832844 
0.21843256 0.080357045 0.08525143 
0.28816217 0.05437085 0.08430668 
-0.014794739 0.02762537 0.14137022 
-0.15736654 -0.023289388 0.09759113 
-0.35453203 -0.0714354 -0.13024369 
-0.09360873 -0.005489205 0.08350104 
-0.23608728 0.0005201975 -0.008685485 
0.0026548072 0.026629698 -0.12251315 
-0.1702871 -0.020863626 -0.06333968 
0.27811104 0.01006919 -0.036006544 
-0.0769697 -0.02107571 0.10311319 
-0.00765794 0.018108718 -0.075390495 
0.2204192 0.08268021 -0.090392545 
-0.19710469 0.045433253 0.13576078 
0.17623022 -0.023207907 -0.107438274 
0.27302626 -0.0037549061 -0.061421663 
-0.19946292 0.07302402 0.14464612 
-0.21621978 0.060462955 0.016293554 
0.48378032 -0.0008896487 -0.14490493 
0.45893005 0.046670575 -0.1480005 
-0.06866695 0.025705213 0.07368619 
-0.32358992 0.07018804 -0.14380935 
0.051732752 0.021132518 0.15702033 
0.39935085 -0.067346014 -0.08359317 
0.25407898 0.06469683 -0.10747025 
-0.3336624 -0.026028654 -0.14665158 
-0.30765173 0.032814108 -0.08201277 
-0.2397018 0.024275143 0.14834522 
0.30500728 0.05093405 0.0957199 
-0.34781426 -0.029570064 -0.14078194 
0.10021492 -0.016299337 0.038120262 
0.08933333 0.02855554 -0.057129648 
-0.13164148 -0.023578817 0.07955518 
-0.13319017 0.03043042 0.11204613 
-0.14352013 0.0213191 0.150026 
-0.29971495 0.021670483 0.12424925 
0.3113628 0.06513593 -0.053188395 
-0.09540399 0.00925556 -0.07804803 
-0.086411476 -0.022263274 0.0787986 
-0.35442367 -0.033019856 -0.15318495 
-0.14867698 0.03210664 0.13131295 
0.18574189 0.05486618 -0.07759768 
0.18598439 -0.002531485 -0.08108027 
-0.06695052 -0.019532794 -0.11515953 
0.38151404 -0.022944324 -0.10877479 
0.021845315 -0.014728053 0.10551676 
-0.33500588 -0.06200036 -0.13320099 
-0.009601571 -0.016231993 0.08381115 
-0.16731223 0.04470439 0.08264727 
-0.15859659 0.033944163 -0.034932204 
0.26618755 -0.009896622 -0.09702379 
-0.45969504 -0.063038506 -0.13742898 
-0.05997383 -0.022872038 -0.07748391 
-0.29091737 -0.022156844 -0.13585857 
0.2958975 0.05913658 0.082894556 
0.37843144 -0.06776783 -0.13276777 
-0.39368504 -0.058980536 -0.14489189 
0.43345916 0.01870317 -0.10263044 
0.32203448 0.05998976 -0.077112004 
0.030746644 -0.021075431 0.093694985 
0.14119342 -0.023531638 0.042531803 
0.08447686 -0.011699321 -0.1357061 
-0.030093096 0.029409958 0.14717413 
-0.4374634 0.031590275 -0.15121737 
0.08138869 0.01534781 0.1458301 
-0.057688974 -0.0076220995 -0.030822238 
-0.41979137 -0.06852968 -0.10136148 
0.38911155 -0.08150026 -0.10913777 
-0.273129 -0.0044850777 -0.14917257 
-0.28143498 0.058593877 0.046157822 
-0.35228944 -0.06216905 -0.102857955 
0.29867485 -0.042356845 -0.12069528 
0.37893206 -0.0057440572 -0.10178285 
-0.10381768 -0.0050172103 0.08780548 
0.29735067 0.07134723 0.115992725 
-0.071307644 0.025660772 -0.10519206 
-0.263056 -0.004101799 -0.11138649 
0.31113824 0.064155646 0.076298006 
-0.20845394 0.040042643 0.14541437 
-0.17574713 0.031038407 -0.11295907 
0.3146041 -0.042743877 -0.09413013 
-0.30650195 -0.040476922 -0.100368425 
-0.3403991 -0.040453795 -0.15461992 
-0.40840963 -0.031902123 -0.092581265 
0.10280525 0.025862288 0.12260311 
0.21427552 0.0044784206 0.101629406 
0.2483368 0.06229945 -0.043285705 
0.3559091 0.10894502 -0.109066315 
-0.40193018 0.06401526 -0.13658531 
-0.11648951 0.026006533 -0.08674457 
-0.41094568 -0.048145078 -0.13051882 
-0.20134635 0.020961417 -0.047389127 
-0.25591868 0.0652299 0.10381993 
-0.042185426 -0.0019532256 0.05850715 
-0.23310183 0.03641949 0.17388472 
0.23888123 0.063577466 -0.08438651 
0.4987079 0.01679564 -0.14039643 
-0.11450486 0.024002241 0.09096009 
0.023764795 0.029775072 0.12419985 
0.13218862 -0.017353468 0.12692079 
0.19368649 0.018095257 -0.13861434 
-0.18001938 0.055047125 -0.038323082 
0.500653 -4.4988345e-05 -0.14463209 
0.1410893 0.013547418 0.10816505 
-0.12574567 -0.016327953 -0.015762147 
-0.4291121 -0.030743059 -0.110881165 
0.1683518 -0.01377896 0.105189756 
-0.05247596 0.025656793 -0.11557765 
-0.37063432 0.008638766 -0.10623138 
0.386763 -0.01055674 -0.1339279 
0.29403168 0.07447441 0.042271785 
-0.12551604 -0.029932462 -0.0847998 
0.24836169 0.022162622 0.14640403 
-0.08476648 0.025868956 -0.06977644 
-0.31509164 -0.045526896 -0.12122898 
-0.10827336 0.02747411 -0.007428085 
-0.31347457 0.06413269 -0.10093525 
0.20338471 0.014466269 0.08581154 
0.31068426 0.06952991 0.12561634 
-0.12101719 -0.016027825 -0.053665742 
0.1726643 0.03417887 0.003196336 
0.1683125 -0.01962709 -0.12318938 
0.41558817 0.036777828 -0.10283861 
0.26271906 0.06677262 0.016807277 
0.26075825 0.046296064 -0.15817025 
0.1615043 0.035310246 -0.017590858 
-0.15096688 -0.021577345 -0.094255894 
-0.19645657 -0.0024993713 0.049139723 
0.35116345 -0.0045726555 -0.14506707 
0.41557038 -0.005748011 -0.102913685 
-0.06820674 -0.005129894 -0.031176716 
0.1733404 0.040098757 -0.1446119 
-0.08987561 0.00038996054 0.08833517 
0.2421149 0.02257818 0.15969256 
0.47370103 0.03667151 -0.14238788 
0.080114976 -0.01723123 -0.113606006 
-0.3140499 0.017378995 -0.13959296 
-0.344995 0.06238744 -0.1057005 
0.15311691 0.026296316 -0.050656006 
0.3323614 -0.06261818 -0.11624242 
0.40932807 -0.04628748 -0.102440655 
-0.3503166 -0.06425417 -0.10527839 
0.2564069 0.043805063 -0.103284925 
0.44013742 -0.010025113 -0.08095637 
0.46099135 0.0005086173 -0.09774208 
-0.19138503 0.037177123 -0.1493162 
-0.27677563 0.0075842235 -0.027093947 
-0.38983458 0.07672519 -0.15161428 
-0.08884416 0.009715014 0.017806074 
0.1450885 0.022732569 0.12259623 
-0.17756252 -0.014869182 0.11225104 
-0.077982545 -0.017322056 -0.08362764 
-0.24935248 0.048146475 0.1445849 
-0.17074004 0.029976342 0.085802555 
-0.03888756 0.016223455 0.07407083 
-0.4532513 0.015309904 -0.096954904 
-0.29827374 0.028949223 -0.028844682 
0.22652283 0.059643015 0.04212891 
0.44354224 -0.004415543 -0.14823651 
0.20755738 0.014204719 -0.15237358 
0.17140035 -0.034007423 -0.0024592178 
-0.12650555 -0.005180741 -0.14679594 
0.07939832 0.009305382 0.10039988 
-0.45775658 -0.066744395 -0.121803865 
-0.27278355 0.0048636305 0.07586296 
-0.07689143 0.008841574 -0.0025471805 
0.04904933 0.02461671 -0.103253625 
-0.1691835 0.032201327 -0.09692153 
0.2234085 0.017735489 -0.090946175 
0.04107167 -0.017349847 0.1126061 
-0.16238187 -0.017405992 -0.003069233 
-0.33502612 -0.0019290394 -0.15551889 
-0.028167425 0.026949182 0.13009535 
-0.25393733 0.068787225 -0.1547359 
-0.1893948 -0.0069672302 -0.074647546 
0.40766326 0.09188383 -0.16264623 
0.14459422 -0.024113435 0.03559808 
0.097413205 0.025640814 -0.13207653 
0.19884562 -0.00035093832 0.09160418 
-0.47603083 -0.03713879 -0.10183133 
0.31452975 0.061467964 0.023051322 
-0.42860216 0.0035275484 -0.11490506 
-0.003016956 0.021242274 0.14573184 
-0.27899146 0.070678055 0.14828296 
-0.45002308 -0.030236475 -0.15278403 
0.312894 0.063441314 -0.057758745 
-0.26268145 -0.014001526 -0.06536439 
-0.16458353 0.024427826 -0.12160209 
-0.09839458 0.013277584 0.1481864 
-0.17218381 -0.017364034 -0.12256014 
-0.28210646 0.042823516 -0.14984891 
-0.270077 0.007123463 0.045565486 
-0.3099612 -0.04535428 -0.103985675 
-0.22603245 0.00057606923 0.073849596 
0.038207732 0.015373671 0.15044971 
0.34040427 -0.0812464 -0.12332718 
0.18068844 0.050282773 -0.12319369 
-0.07814293 -0.018542042 0.059373133 
-0.16191083 0.029869452 0.039313845 
-0.27738783 0.05688859 -0.13897322 
-0.20111623 0.059920117 0.12981859 
0.08481218 0.01392593 -0.14632575 
-0.19542159 -0.0017448767 0.0713086 
0.07335558 0.03290278 0.08163743 
-0.19358298 0.06687509 -0.04886163 
0.3023272 -0.033842262 -0.106037565 
-0.13465363 -0.01791935 0.09612307 
-0.24581674 0.026323397 0.11953377 
0.17770825 0.045564402 0.06110047 
0.20155449 0.07476176 0.053536583 
0.21086828 0.05537799 0.11584645 
-0.36717528 0.08943794 -0.10973091 
0.046312727 -0.016009068 -0.070898876 
-0.31895515 0.06715897 -0.061641775 
0.082828216 -0.016874507 0.119002916 
-0.14716734 0.027679814 0.03861762 
-0.3035122 0.05101737 0.1397064 
0.27934924 -0.003047805 -0.115711495 
0.3924513 -0.0811071 -0.114892684 
-0.1912558 0.06520431 -0.006878085 
-0.21229374 0.062429402 0.03706702 
0.3486657 0.07283737 -0.0977741 
-0.24459523 0.03856016 0.14957269 
-0.24036758 0.032643512 -0.15697922 
-0.028216695 0.029023271 0.13079162 
0.21619183 0.062396187 0.090882376 
0.091898575 -0.0057021407 -0.013298935 
-0.16747744 0.044144414 -0.062231388 
-0.26918888 -0.03422912 -0.13794827 
-0.30665708 -0.041233037 -0.10524498 
-0.12677896 -0.020113144 -0.058847304 
0.4116545 -0.04508597 -0.096380696 
0.30336398 0.021918887 -0.103933446 
0.2594904 0.060941078 0.075229205 
0.08197486 0.0052936072 -0.09922713 
0.20176904 0.060896438 -0.108182594 
0.316832 -0.025492122 -0.14761278 
-0.45383936 0.020309448 -0.09367539 
-0.25173888 0.014571688 -0.08295021 
0.101892576 -0.030310933 0.09190207 
-0.455448 -0.06471952 -0.14027727 
-0.28202558 0.063035145 -0.11823337 
0.13806957 0.021806734 0.12489423 
0.24418768 0.007626681 0.14719956 
-0.17219396 0.04530219 0.1267158 
0.2205728 0.07218539 0.043759897 
-0.100934155 -0.015609973 0.0764555 
-0.20698135 0.0047043883 -0.060410596 
0.25109652 0.06212174 -0.052672405 
0.0062344 -0.016294613 -0.14577158 
0.011670335 -0.017278243 0.13975337 
-0.25971264 -0.0076889726 -0.04376158 
0.119219355 0.02326902 0.13394679 
0.02582061 0.004031193 0.16259384 
-0.30850497 0.050983846 -0.10537278 
-0.45914528 0.050324753 -0.14723009 
-0.2364351 0.00014118348 -0.093649566 
-0.3167938 0.065151826 -0.0015591963 
-0.29115662 0.062741324 0.04877811 
-0.15299305 0.025523169 0.10147176 
-0.3958689 -0.08240707 -0.10149798 
-0.110921495 0.027843464 -0.10321684 
0.23897877 0.0058409935 0.040585525 
-0.08075852 -0.011663385 -0.09773385 
-0.37147802 -0.046386775 -0.13906564 
0.1184329 -0.016611079 -0.12424932 
0.25801495 0.06406119 -0.14486073 
0.20823325 0.06349176 0.09510385 
0.14189093 -0.01776732 0.11322299 
0.4426882 0.07917824 -0.161183 
-0.30624893 -0.011525859 -0.15175897 
-0.06275103 0.028854093 0.07131168 
0.08508308 -0.017653098 -0.10416209 
-0.38953224 0.10528507 -0.12879504 
-0.03783753 -0.0015924763 0.059376117 
-0.30597866 0.04142351 -0.017450623 
0.12567046 0.02595541 -0.1264046 
-0.1442527 0.026991075 -0.1450809 
-0.29648072 0.06175499 -0.0066742892 
0.14481483 0.026895883 -0.040718846 
0.16835675 0.04173994 0.13148879 
0.18206328 -0.006477443 0.081405915 
-0.035575334 0.03420415 -0.122580394 
-0.36772943 -0.028415648 -0.13735352 
0.4112818 -0.100619934 -0.09990586 
-0.39388514 -0.077512056 -0.08799618 
-0.32496235 -0.057999443 -0.15018873 
0.24835436 -0.0029472723 -0.06900283 
-0.21683532 0.06746535 -0.12960386 
-0.49028817 0.013721308 -0.11514602 
0.43951643 0.06516159 -0.1382577 
-0.33079648 -0.03200043 -0.10108991 
-0.13326623 -0.014014281 -0.06738206 
0.26103023 -0.011384552 -0.0921364 
0.092953116 -0.015905049 0.13682817 
-0.41726395 0.06953314 -0.14631163 
0.46023038 0.040982552 -0.100503586 
-0.11708077 0.016704578 -0.07513796 
0.17719191 0.038573552 0.1474762 
-0.1507141 0.025783552 -0.08243885 
0.1024361 -0.027498666 -0.11883065 
0.048941504 0.03384801 0.079586685 
0.033175316 0.021838227 -0.09587877 
-0.32944646 -0.059777744 -0.115017846 
-0.076764606 -0.018062143 0.07514486 
0.31250224 0.06352676 0.04223559 
-0.37745085 0.10021198 -0.14255811 
-0.25951082 0.06335029 -0.08908415 
-0.30285242 0.06282417 -0.086750336 
0.02564494 0.031283196 0.12187364 
-0.09290262 0.014637755 0.09595843 
-0.45044062 -0.0242984 -0.100646496 
-0.19313134 0.023587057 0.14372385 
0.02741937 0.017338678 -0.08080371 
0.45603672 -0.053471263 -0.09801058 
-0.2821352 0.069471344 -0.025130153 
0.19256134 0.013281742 -0.14156994 
-0.12363656 0.016916754 -0.13886596 
-0.330781 0.08978754 -0.13431859 
-0.42194706 -0.046999823 -0.14011735 
0.06747824 0.027232021 -0.14402781 
-0.16184042 0.004873733 -0.044109493 
0.2847033 0.050265566 -0.02364311 
0.13963756 -0.017243493 0.14408825 
-0.39575276 0.0401268 -0.13293391 
0.109851316 0.024231263 0.05222958 
-0.21732996 0.023164673 -0.15035096 
-0.207122 0.06425224 -0.04130258 
0.042550366 0.026883848 -0.111384496 
-0.36737013 0.06441292 -0.15556374 
0.32010955 -0.045147125 -0.09891636 
0.17631519 0.0352751 -0.1344608 
-0.086000174 0.018623145 0.00013896689 
-0.36242762 0.10225963 -0.13775723 
0.18873788 0.061768875 0.07259408 
-0.36538476 0.06123865 -0.14788246 
-0.14747977 0.006797232 0.14385481 
0.009238083 0.025020363 0.14469439 
0.3725803 -0.006965537 -0.15146549 
-0.4849895 0.044985455 -0.090730965 
0.1861206 0.044605367 -0.022915618 
0.21743585 0.07206608 -0.12133897 
0.25999656 0.00904025 0.14675932 
0.10605374 -0.019870825 -0.028375672 
0.28944808 0.020234037 0.10213896 
-0.42334816 -0.05965598 -0.14023528 
-0.19412726 0.005332095 -0.12657757 
-0.10447816 0.01818962 -0.030483386 
0.21104911 0.010783251 0.057673868 
0.34835577 0.083188094 -0.10266788 
-0.07743686 -0.014941463 -0.021524731 
-0.47176823 0.0042805206 -0.152293 
-0.14681906 -0.022696013 0.071518235 
-0.22437678 0.06368759 0.09868739 
0.238971 0.061005007 -0.12940215 
-0.19995968 -0.0009432985 -0.08902128 
0.07029033 -0.010052888 -0.13793579 
-0.32153133 0.058150295 -0.15304495 
-0.21472143 0.067352794 -0.062097482 
-0.07924388 -0.017335478 0.1457566 
0.10805271 -0.027959816 0.091398545 
0.29247996 0.057635523 -0.14798777 
0.43490964 -0.030201958 -0.10006985 
0.25447294 0.06283285 -0.06558238 
-0.2506383 0.065619916 0.01075984 
-0.19111642 0.033835765 -0.09926164 
-0.34996983 -0.07323143 -0.14327377 
0.43968147 -0.014766826 -0.103572674 
0.39311638 0.09036663 -0.13062444 
0.062160484 -0.01698516 0.1091117 
-0.10098137 -0.013421329 -0.082205996 
0.32814518 -0.038185004 -0.15317655 
0.2694852 0.005508545 -0.010344097 
0.34203625 -0.02112727 -0.09501065 
0.24227603 0.06939942 -0.06551595 
-0.1184504 0.027634285 0.14091119 
0.105919085 -0.017511578 0.12458201 
-0.20550826 0.015492838 -0.15219039 
-0.3438317 0.03219868 -0.14838901 
0.17063212 0.033017408 -0.08489256 
0.37600708 0.08181667 -0.10192132 
0.10151754 0.028496895 0.06283499 
-0.24486212 -0.0004964629 0.08313837 
0.17303267 0.037860375 0.026666148 
-0.20713434 0.0056750984 0.016404003 
-0.14210431 -0.017265067 -0.13863105 
0.46537548 0.045151874 -0.1294774 
0.31849822 0.063037224 0.12819277 
0.29593214 0.034174148 -0.014862607 
0.13071434 0.029574342 0.055430066 
-0.30685356 0.060562115 -0.020371972 
0.31561017 0.06108021 0.0813885 
-0.15664506 -0.017748749 0.11876743 
0.13990259 0.029690713 -0.11891908 
-0.46120542 0.048870724 -0.14135297 
0.3213032 0.017131725 -0.09982248 
0.44885996 -0.083564535 -0.12051766 
-0.2911073 0.06397201 0.010805984 
-0.29987898 0.03764907 0.058550477 
0.24224693 0.052204806 -0.08890957 
-0.21010272 0.027742622 0.14672916 
-0.18445218 0.056790333 -0.0011660267 
0.19187671 -0.013128914 0.026472315 
0.03871011 -0.017224772 0.112442434 
-0.26542002 0.065600105 -0.1167596 
0.24341044 0.06929156 0.02470217 
-0.1065488 0.025534924 -0.05850532 
-0.14093095 -0.022854 -0.01023335 
-0.20725937 0.005580264 -0.08652986 
0.090956196 0.019477481 0.12822238 
-0.11706429 -0.00962176 0.08243302 
-0.38124993 0.05807299 -0.15393852 
-0.17213936 0.031122038 -0.031016313 
-0.21029864 0.06286635 -0.075057246 
0.051037494 0.019834587 0.15727903 
-0.05284129 -0.006235573 -0.13738503 
0.11943014 -0.01937973 0.112439394 
-0.34429014 -0.025686746 -0.16030492 
-0.35083476 -0.031264264 -0.14453723 
-0.17205104 -0.020477196 0.10305074 
-0.08503831 0.027626172 -0.017782725 
0.06973757 -0.0085383 0.04505554 
-0.083253734 0.0093386825 -0.14792156 
-0.38517874 0.067418054 -0.10809683 
-0.41496533 0.094598256 -0.13378052 
0.42139742 0.015443286 -0.14797822 
0.38256156 -0.0090028215 -0.15547737 
-0.17759766 -0.025217846 0.11817345 
0.1376751 0.025128243 -0.12944785 
0.33471057 0.103633285 -0.13402012 
0.17195888 0.032063037 0.13025665 
0.13296187 0.025653899 -0.025463786 
0.057866096 -0.0140205715 0.09128622 
-0.18347655 -0.007528205 0.140725 
-0.23752555 0.058281373 -0.034248978 
0.03076048 -0.025163248 -0.13213734 
0.1494356 -0.016896812 -0.026772594 
0.12550583 0.022282775 0.03874958 
-0.42544645 0.056903906 -0.14908354 
0.25717 0.015723735 0.061451882 
-0.28528738 -0.009891829 -0.14472318 
0.46828625 -0.022262208 -0.10357317 
-0.11586261 -0.037983738 -0.0075677503 
-0.12222422 0.030036751 0.049309798 
-0.34706086 0.09312159 -0.1429398 
-0.35945904 -0.04379057 -0.13461879 
-0.28716347 0.066040784 -0.020913133 
0.3754232 -0.032891855 -0.15417007 
-0.43021312 -0.009922098 -0.11398921 
0.39231998 0.020629086 -0.15222554 
0.021859843 0.009781463 -0.07645758 
0.27394298 0.057058427 -0.078874335 
-0.19835667 -0.0041178493 -0.074413866 
-0.19705844 -0.012131662 -0.09859229 
0.18109083 0.048554532 -0.017658733 
0.39792055 -0.027944827 -0.14753589 
-0.0429177 -0.0036982484 -0.061280843 
0.18121673 -0.0031523122 0.10233412 
0.50018626 0.012501258 -0.09776938 
0.3236367 0.0668797 0.12783866 
-0.11619559 -0.017468505 0.1289467 
-0.25771075 0.08001682 0.009364148 
0.19517739 0.03490293 -0.14962886 
-0.06722781 0.021920875 0.04079996 
-0.07763731 0.021421906 0.15399666 
0.09986336 0.02438723 -0.050602224 
-0.4184447 -0.026065074 -0.14445747 
-0.1139772 -0.022076247 0.104133874 
0.19683634 0.06882844 -0.08600997 
0.4561315 -0.010835627 -0.11084335 
-0.25849435 0.06388039 -0.065263964 
0.137777 -0.017297942 0.08866704 
-0.39900944 -0.08709941 -0.11712326 
0.1798264 0.053277772 0.075333565 
-0.06245645 0.027217109 -0.05389648 
0.12576008 0.023352453 0.05956852 
0.24911167 0.060033135 -0.1291765 
-0.14203654 -0.029184017 -0.09251798 
0.13474824 0.025571613 0.06051285 
-0.38444746 -0.05096423 -0.13595213 
-0.27715376 0.010712549 -0.020888528 
0.08312942 0.041607462 0.0023550747 
-0.43798396 -0.086839244 -0.14921336 
0.019840099 0.026964212 0.077959634 
0.15179934 -0.021092005 -0.07087418 
0.12867202 0.028682541 -0.15123035 
0.4060693 -0.05485069 -0.12113424 
-0.25873566 -0.0064253155 0.13558857 
0.30971545 0.058903914 -0.035667114 
0.19151223 0.060837187 -0.0058956523 
-0.12910344 0.017434806 -0.10313454 
-0.30560973 0.05847398 -0.025757829 
-0.14731961 0.025969345 0.14624198 
-0.30509245 -0.034925673 -0.14877468 
-0.05109929 0.026235113 0.12983775 
-0.16830365 0.009507378 0.15757746 
0.1444597 -0.015969565 0.090273514 
0.24827223 0.06416419 0.033013616 
0.1944824 0.053992562 -0.15481189 
-0.1592741 0.042643335 -0.14636315 
0.13485631 -0.016528832 -0.08867616 
-0.34893376 -0.07165844 -0.13664344 
-0.4123325 0.0009600966 -0.088220626 
-0.26932952 -0.024875693 -0.1323133 
0.052333463 0.023677286 -0.13439353 
0.4097042 -0.058132242 -0.14585912 
-0.1907561 0.06495034 -0.01928379 
0.22443765 0.004806361 0.0526039 
-0.04451626 0.03969304 -0.12911904 
-0.06344267 0.028892782 0.108587444 
-0.25711071 0.06302795 -0.10804589 
0.49873078 0.020493766 -0.14802603 
0.12019487 0.028813373 -0.13728158 
0.34743807 0.026451137 -0.1480129 
0.4268041 0.024463847 -0.13327658 
0.16777833 -0.017734295 0.14452262 
0.41859394 -0.106405176 -0.11396852 
0.02611582 -0.018363465 -0.104322724 
-0.38499314 0.069854915 -0.14186142 
-0.3746304 -0.08326324 -0.15024509 
-0.5115997 0.008995866 -0.13445453 
-0.35771853 -0.01596682 -0.1405733 
-0.27146342 0.06167121 0.12770998 
-0.07402958 0.0132782515 -0.03410945 
0.07939611 0.023328103 0.08232117 
-0.14545752 -0.020156702 0.115287036 
-0.48534736 -0.017810466 -0.13733263 
-0.1305567 -0.017777657 -0.10608334 
-0.49235052 0.030182883 -0.10651484 
0.2685969 0.06565606 -0.07055886 
-0.16181627 0.011565706 0.114514574 
-0.19012725 0.059517406 0.042494882 
-0.45753992 -0.0020576662 -0.095948674 
-0.2486166 0.010032623 -0.14969179 
-0.022824574 0.017308448 -0.15042552 
-0.18175928 -0.009080699 -0.12430459 
0.194217 0.05296611 0.12283477 
-0.18684639 0.06345844 -0.16857772 
0.2506256 0.064436585 0.065999 
0.40172762 -0.0103246095 -0.16528788 
0.45497888 -0.05195943 -0.10779814 
-0.041083038 -0.020151801 -0.0722881 
-0.4211754 -0.051915977 -0.10096802 
0.41485068 -0.10385065 -0.10155909 
0.37628233 -0.06157821 -0.14892599 
0.10704568 0.022156354 -0.10250216 
-0.43878525 -0.09679456 -0.10960418 
0.015987413 -0.017690113 0.12452655 
-0.34884995 -0.03401276 -0.07588473 
0.36618158 -0.021429306 -0.10373092 
-0.23295009 0.0013559873 0.038872965 
-0.09196107 0.025496671 -0.0053840005 
-0.17747055 0.045580063 -0.12753247 
-0.29257855 0.031862415 0.08087549 
-0.051938497 -0.018925529 0.059393257 
-0.29311916 0.022854377 -0.15018126 
-0.07679482 0.004188374 0.009411217 
-0.14581914 0.013869541 -0.1480825 
0.04280841 0.02491594 0.15453358 
-0.29696712 0.023502758 0.010464558 
0.18569814 0.05994201 0.12303349 
0.45828062 -0.063941546 -0.1194896 
-0.07913554 -0.013088062 0.10886993 
0.130964 -0.02861078 -0.09156938 
-0.17113006 -0.014517311 -0.08588002 
-0.29723418 0.02893945 -0.027497469 
0.21972503 0.008219458 -0.120697655 
-0.2331591 0.00044776243 -0.031969305 
0.050091524 0.021586709 -0.09383283 
0.19811875 0.063380875 0.019498786 
0.12412318 0.025133763 0.09171463 
0.16837952 0.031184213 -0.14047952 
0.19309716 0.058783878 0.038240664 
-0.4030977 -0.100143984 -0.15605839 
-0.40378144 0.08811797 -0.10971626 
-0.105849475 0.01777451 0.09899798 
-0.24063835 0.020176925 -0.025651406 
0.1699582 -0.016258225 0.013518396 
-0.04480168 0.02811837 0.14610709 
0.30280614 0.016009877 0.058796834 
0.20649968 0.061800577 -0.0898942 
0.08119219 -0.0062949113 0.14093354 
-0.059913337 0.02436827 -0.056253824 
-0.3151274 0.062264077 -0.009647869 
0.2803036 0.012961376 -0.012592407 
-0.06298692 -0.012690267 0.1603979 
-0.08239502 0.026780996 -0.03197226 
0.37520206 0.09066346 -0.1451622 
-0.06463508 -0.0022250013 0.14623776 
-0.18044385 0.040788524 0.02750908 
-0.43484828 -0.020177625 -0.14905469 
-0.2512825 0.04970476 -0.007450325 
0.05468867 0.031328134 0.07880422 
0.27684653 -0.0019893283 -0.1130581 
0.19759697 0.056669578 0.029740306 
-0.33750317 0.022428153 -0.094467446 
0.019175107 0.032327183 -0.13047384 
0.097055115 0.022389816 -0.03317783 
0.1999441 -0.0067909346 -0.11741557 
-0.303808 0.06399732 -0.13415475 
0.085038915 -0.01721674 -0.029368436 
-0.27305496 -0.0070314608 0.11051381 
0.02279355 -0.021054916 -0.11674681 
-0.36416367 0.05937546 -0.14616962 
-0.46771857 -0.035327822 -0.16022603 
-0.051728886 -0.008757432 0.055324867 
0.3530038 0.023659417 -0.14183591 
-0.2709973 0.011698701 0.12850975 
-0.3413574 -0.010063175 -0.1045698 
0.20436935 -0.0006783889 -0.13950023 
-0.29592678 0.023270732 0.14740147 
-0.041726794 -0.017630627 0.122730225 
-0.24257913 0.047113262 -0.13997544 
0.27666238 0.045135878 0.15224326 
-0.22778969 0.055838943 -0.0025305199 
0.21890563 0.059399292 -0.016758878 
-0.12732966 -0.027371377 0.0883634 
0.12233933 0.027411323 -0.016412929 
-0.10490462 0.025776574 0.15331191 
0.30193955 0.06287102 0.14053692 
0.4333384 -0.09972561 -0.1402725 
0.063028365 0.02406614 -0.07896447 
0.20056751 0.008841804 0.009449875 
0.4675703 -0.00636635 -0.103840515 
-0.14515397 -0.019989379 -0.09256461 
-0.050257288 -0.0025971034 -0.062286723 
0.23310445 0.063738 -0.056935854 
-0.008752627 -0.00039153313 -0.082933635 
0.021069719 -0.016675195 -0.08656087 
-0.4303983 -0.042604573 -0.10995409 
0.42757824 -0.012716458 -0.1369419 
-0.19212405 0.0681149 -0.14826842 
-0.09919767 -0.0084636165 -0.016912254 
-0.204686 0.061359078 -0.12399495 
-0.26369366 0.0021886576 0.019379094 
-0.17389265 0.0037874486 -0.14932756 
-0.0329841 0.017265735 0.07344393 
0.35435766 -0.03308618 -0.09611416 
-0.05429482 0.025193129 0.084229805 
-0.15013671 -0.017612543 -0.018784111 
0.23036653 -0.0021683837 -0.11519852 
0.38532212 -0.0035772033 -0.11131249 
-0.03209075 -0.017359369 0.0830883 
-0.18183663 -0.022781005 -0.089455724 
-0.40424025 -0.04449225 -0.081465 
-0.20873511 0.06413088 0.108590536 
-0.50510806 0.01307803 -0.1242834 
-0.4084622 0.08560104 -0.10941828 
-0.077541895 -0.0074288156 0.013737357 
0.21076475 0.06993447 0.06590094 
-0.13146943 0.024487274 0.000960251 
0.38324428 0.06901833 -0.10481872 
0.3179073 0.045774035 0.07883097 
-0.1545529 0.027506348 -0.086084425 
0.25526386 -0.0006890681 -0.08425193 
0.12878822 0.037800737 0.08241281 
0.28209457 0.014762099 -0.08850316 
0.39755493 0.0333712 -0.1048661 
-0.35841104 0.042425033 -0.14494959 
0.4205238 0.07801943 -0.1171285 
0.3111292 0.06446891 0.14213695 
-0.4263663 0.049174793 -0.14805122 
0.17541693 0.053627208 0.010721839 
0.11700388 0.030667227 0.10357157 
-0.10512595 -0.030031081 0.04136664 
0.22758542 -0.0017218725 -0.12869488 
-0.09407944 0.028154237 0.031510577 
-0.06753129 -0.019355036 0.083623014 
0.27913967 0.0050728065 -0.07312912 
-0.2218254 -0.005277648 0.024369283 
0.058957152 0.006390694 -0.14612176 
0.35317394 0.10528397 -0.11007644 
0.26735088 0.0041299104 0.042659696 
0.19441149 0.062093638 0.13588977 
0.112130985 -0.017118964 -0.08848306 
0.27538303 0.009805686 0.0076546865 
-0.08096365 -0.019266922 -0.04909911 
-0.24082345 0.06582402 0.13035093 
0.4734167 -0.034750994 -0.15175413 
0.06987939 -0.0114227105 -0.13311839 
-0.4634693 -0.030346788 -0.11447176 
-0.26528463 0.07072268 0.086468615 
0.27247527 -0.027962336 -0.1419686 
0.2568042 0.0050546625 0.1486473 
0.13350968 -0.017977882 -0.07424468 
0.070136584 -0.01866674 -0.06215941 
0.4383451 0.057487763 -0.10385536 
-0.19609183 0.028522393 -0.14817776 
-0.4903932 -0.010358947 -0.12195517 
-0.08822713 -0.010129974 0.118801855 
0.07425732 0.010879344 -0.13179494 
0.10096501 0.026537238 -0.03884806 
-0.42306063 0.056738414 -0.14649068 
0.2908211 0.014205283 -0.020951258 
-0.38532722 0.016315863 -0.104847245 
-0.4007425 0.0477492 -0.14888577 
0.035908785 0.0025219638 0.15410203 
-0.449786 -0.076490216 -0.11225049 
0.2533557 0.00021237008 0.1401616 
-0.12336878 0.052378587 0.11110566 
0.39423874 -0.06408582 -0.10008083 
-0.43518412 -0.017307198 -0.11709547 
0.16028324 -0.013978015 -0.026658827 
-0.2356342 0.0023655205 -0.044657085 
0.0728554 0.023021635 0.08907035 
0.27517992 0.067397006 -0.097995296 
-0.43598592 -0.09722065 -0.10520188 
-0.24298069 -0.019172711 0.09527462 
-0.45153993 -0.0780398 -0.13234918 
-0.12550671 0.025778944 -0.0152884545 
0.14033024 -0.01794995 -0.09289613 
0.47598955 -0.050669245 -0.13883136 
-0.012183499 0.017952068 0.082064934 
-0.44637078 0.06630176 -0.15841123 
-0.3124674 0.06309866 -0.102369696 
0.15955608 0.006751081 -0.139624 
0.39934742 -0.021648038 -0.14019957 
0.45411542 0.017385945 -0.14836231 
0.18558182 0.05709153 -0.079292156 
-0.3148697 0.06336309 0.04177676 
0.21533442 0.06957096 -0.10294686 
-0.22224775 0.011973672 0.15825075 
0.41777053 -0.10703598 -0.12546024 
-0.20669048 0.05176548 -0.04850493 
-0.14435567 -0.01671826 0.07029387 
0.20071042 0.05422265 0.120175615 
0.4638949 -0.031266816 -0.1353961 
0.15876114 0.025032474 0.028113862 
-0.025676621 0.017616784 -0.14208822 
-0.40097743 -0.09951487 -0.08744148 
-0.14325179 0.026691219 0.020719217 
-0.49120128 0.026598636 -0.14391938 
-0.14632915 0.024562906 -0.071059085 
-0.34906867 0.10436501 -0.110516384 
-0.14538759 0.033284537 -0.15934719 
0.3091432 0.044390585 -0.04720135 
0.48704982 -0.019660763 -0.12819569 
-0.24643582 -0.00034042186 0.019165196 
0.049347587 0.025884673 -0.12654664 
-0.31087613 0.060914185 0.08435693 
0.20141828 -0.0012030174 -0.02155397 
0.38297787 0.09860454 -0.121774234 
0.21872492 -3.479839e-05 -0.122408256 
0.25872573 0.065821126 0.11155873 
0.039563816 0.03235659 -0.11432182 
0.44448858 -0.06442031 -0.14107074 
-0.21609505 -0.002360654 0.07471787 
0.118377544 -0.016597807 -0.12026917 
0.14677046 0.024031483 -0.1322227 
0.29638067 0.012309093 0.041383255 
0.3664711 0.03303931 -0.10315697 
-0.15407442 -0.024473362 -0.015834114 
0.37931925 0.033157963 -0.14704897 
-0.088660285 0.024876744 -0.14569263 
0.17215137 0.0254164 -0.0070318608 
0.10451307 -0.015714666 -0.08166365 
0.4824651 0.021005647 -0.10257244 
-0.20393245 0.07108096 0.070430934 
-0.17126477 -0.012776856 0.06337783 
0.0737213 0.01515438 0.14784738 
0.096523575 0.008441793 0.05213549 
0.19527513 0.06096038 -0.12604527 
-0.38869265 0.033673987 -0.10865574 
0.099578165 -0.009027874 -0.10732266 
-0.10063636 -0.009232864 0.13319956 
-0.18222381 0.05502147 -0.11140433 
-0.28816137 0.059515886 -0.01614055 
-0.03700778 0.02192344 0.14284821 
-0.15794368 0.028544756 0.038403068 
0.1320352 0.029472956 -0.007740272 
0.27779546 0.02853093 -0.14352761 
0.17045665 -0.015506873 0.13235867 
0.24046977 -0.0017709075 0.10708985 
0.21109577 0.00855857 0.076913275 
-0.46830395 -0.005064506 -0.15207952 
0.170948 0.025599668 0.11967559 
0.29035723 -0.02510928 -0.13884357 
-0.15885502 0.017530497 0.1125403 
-0.0138261225 -0.017870547 -0.11621265 
-0.2512942 -0.017366353 -0.13078795 
0.3179444 -0.0388291 -0.14812423 
-0.3027957 0.06456243 -0.10877858 
-0.32277322 -0.045884214 -0.13028075 
0.2992064 0.044314057 -0.053312402 
-0.3164008 0.056894876 0.03241571 
0.37279546 -0.053452063 -0.15141213 
-0.21107733 0.05819837 0.1489566 
0.0329031 -0.018195022 0.09495784 
-0.10978747 0.032226413 -0.06720092 
0.20310412 -0.0016733964 -0.01532493 
-0.14739901 -0.022907093 -0.1464387 
-0.25354725 0.00010328797 -0.07306894 
-0.14749792 0.025323628 -0.00067912624 
0.27210712 0.066183135 -0.018111875 
0.25530213 0.048516843 0.14979814 
-0.065669455 0.027747711 -0.12801407 
0.25570676 0.071590915 0.08231282 
0.33229226 -0.053878434 -0.09993967 
0.13631706 -0.01637795 0.1452792 
-0.14399087 -0.017693862 0.040584892 
-0.077419594 -0.018249601 -0.09899042 
-0.10893602 -0.017349636 0.0827229 
0.46997583 0.047204297 -0.12719008 
0.32640347 0.0504374 -0.09442303 
-0.03469619 -0.003830366 0.07549059 
-0.03608753 0.023214133 0.08361069 
0.11405142 0.02156546 -0.047966707 
-0.18589593 0.05751647 -0.023438048 
-0.07992725 0.014340168 0.019529313 
0.16209462 0.026060227 -0.03143161 
0.23517491 -0.0032975706 -0.12083671 
0.20738 0.056870714 -0.1367107 
0.008025418 -0.014572557 -0.14962758 
0.28770795 0.062290963 0.13989814 
0.07019551 0.01251064 0.053112075 
0.120408446 0.013996067 -0.08795078 
-0.09242699 0.019202651 -0.10864805 
0.177209 0.05245437 -0.13444895 
0.2113145 0.0075930464 0.07250623 
-0.34108424 0.015561024 -0.10151334 
-0.48245648 -0.026491651 -0.13143298 
0.108529165 0.0260487 -0.10132833 
-0.38267088 -0.033985533 -0.10063076 
-0.4424139 0.06042614 -0.08229074 
0.033563327 0.024388598 -0.08599962 
-0.4323857 -0.09021358 -0.105778284 
-0.26845697 0.0065896334 0.018955607 
0.4327612 -0.04375879 -0.09411529 
-0.37101945 -0.08428807 -0.14012803 
0.28268385 0.01333891 0.09477082 
0.103916466 -0.01700068 0.016605545 
0.095764115 -0.009680626 0.108859606 
-0.16955985 0.02470809 -0.14581557 
-0.09899726 0.020684816 0.124705374 
-0.101900764 0.0054078107 -0.09420178 
-0.19634931 0.062283665 0.13350704 
-0.2612744 0.00032195484 -0.031791557 
-0.3739878 -0.02830153 -0.1639366 
0.4199155 -0.029195955 -0.12207115 
-0.18285353 -0.010210477 0.031018812 
-0.4468819 -0.08395966 -0.11170712 
0.1871958 0.060752884 0.059983153 
-0.47240973 -0.05235919 -0.111915976 
0.44156772 0.014196587 -0.104217716 
-0.12627316 -0.013215195 0.13518566 
0.41136885 -0.034095652 -0.14886278 
-0.08885491 0.025717791 0.047852326 
-0.17225046 0.033571105 -0.114697285 
0.25926924 0.00019292976 0.072509386 
0.09880933 0.04325246 0.13483664 
0.401945 -0.031989206 -0.13416722 
-0.16469048 -0.0067231683 -0.056470763 
0.31613806 -0.054225758 -0.119107135 
0.26428434 -0.01191117 -0.14298777 
0.1807249 0.04622492 0.0855575 
0.34339735 -0.055639062 -0.09978981 
-0.023624182 0.036739405 -0.10927706 
0.2907665 0.0178965 -0.016010609 
-0.26531634 0.06851415 -0.12901473 
0.309358 0.06807234 0.0040227016 
0.14868002 0.023080964 0.004098187 
0.49654678 0.016323049 -0.09991396 
0.08634647 0.028579146 -0.057944346 
0.29126325 0.02417855 0.025094355 
-0.4957611 0.035646383 -0.099133335 
-0.09109383 -0.030723615 0.010757482 
-0.30439663 0.040203754 0.09155287 
-0.12254811 0.03723284 -0.10238384 
-0.35930035 0.10342392 -0.14929235 
-0.061700992 -0.016733268 -0.05861282 
-0.17068677 -0.015258375 0.01186583 
0.20037311 -0.012657 -0.056983627 
-0.3090781 -0.046789967 -0.1490805 
0.18352889 0.0057823276 -0.14404382 
-0.03939415 -0.01730151 0.09299249 
-0.01769189 0.020905972 -0.092716865 
-0.35758665 -0.075396545 -0.14400989 
-0.05507212 -0.0056563453 0.05277476 
0.18944752 -0.013640828 0.075661704 
0.20870069 0.05237758 -0.011232036 
0.14856586 0.026469447 -0.1318499 
0.16958493 0.047268353 -0.09125364 
0.36942697 -0.07013248 -0.10135478 
0.123987935 0.01488281 -0.05920846 
-0.0107524805 0.024722181 0.099692 
-0.07698756 0.030718572 0.0034379992 
-0.42726073 -0.0020123944 -0.09500354 
0.151937 0.032401167 -0.047113486 
0.24582456 0.065927155 -0.018118871 
0.31167364 0.06270296 -0.09261064 
0.25478062 0.0051676445 0.12556113 
0.19858399 0.06272069 0.044293012 
0.08598277 0.028633446 0.034413535 
0.17061147 0.02315781 0.05582347 
-0.31365317 -0.040753298 -0.10050656 
-0.17158845 0.06669537 0.043896146 
-0.21195023 0.06499035 0.11183795 
0.24532244 0.033870615 0.15037666 
0.29996333 0.06279124 0.036407974 
-0.018488491 0.03155532 -0.10835044 
-0.20530444 0.063003965 0.010771838 
-0.0650432 -0.017804597 0.09729184 
-0.05961316 0.024243353 -0.045144934 
0.22777346 0.063243754 -0.13893235 
0.24752256 -0.015649896 0.04959868 
0.48213643 0.051452413 -0.11666548 
-0.045618873 0.03150069 0.10351301 
-0.09416454 0.015866533 0.086999826 
-0.2873567 0.06297288 0.05031156 
0.105091825 -0.013874425 0.10353525 
0.27521682 0.063920274 -0.09576176 
-0.24570791 0.027434707 -0.1546953 
0.36965397 0.0753734 -0.1447674 
-0.10935377 0.02854931 0.117185235 
-0.090194985 0.025713533 -0.08500468 
0.31929538 0.051145695 0.15576401 
-0.47999558 -0.028503155 -0.12938292 
0.29538387 0.07763954 0.026030896 
0.05671939 0.017796207 0.033939835 
0.47556502 -0.046044447 -0.10149797 
0.24993342 0.06301195 -0.040278967 
-0.15718183 0.025704373 0.08338336 
-0.3995293 -0.094252296 -0.14133832 
0.22784993 0.0013924715 -0.063399635 
0.19977655 -0.0017050947 -0.040806014 
-0.048627626 -0.017804738 0.07286793 
-0.2823447 0.0131987315 0.10985607 
-0.4475877 -0.044375475 -0.11060593 
0.19067588 0.022402856 0.14092138 
-0.44643393 -0.039121587 -0.14427207 
-0.4768662 -0.0090331305 -0.14893647 
-0.26251683 0.0040885895 0.11014676 
-0.13080564 -0.016854143 -0.057140034 
-0.101815365 0.03480962 -0.02868813 
-0.48489514 0.0074002007 -0.13948266 
-0.013199807 0.03241279 0.13429461 
0.18507192 0.04677399 -0.14361352 
-0.304511 -0.0457236 -0.12117686 
0.17568313 -0.010264928 -0.020742798 
0.14805232 0.024134472 -0.06990472 
0.16144581 -0.018451693 0.0449005 
-0.14507665 -0.007222005 0.09679152 
-0.2755735 0.06534267 0.023123248 
0.48807296 -0.026820786 -0.13757215 
0.092653014 0.029735032 -0.07381132 
0.35122356 -0.071205094 -0.15139581 
0.26501438 0.06339357 0.045461353 
-0.26850885 0.0026305832 -0.003188372 
0.24380134 0.0077099153 0.1353552 
-0.0031161148 -0.008291094 -0.079378955 
-0.37742576 -0.076145574 -0.10406147 
0.16527276 -0.014314211 0.13073589 
-0.27057627 0.00041174097 0.112466164 
0.05626218 0.02901176 0.13458098 
-0.3024292 0.025907164 0.06613647 
0.18674378 0.06020156 -0.08813854 
-0.20974949 0.008881009 -0.1096462 
-0.27762386 0.013097197 0.027728127 
0.022832653 0.026393846 -0.1414807 
0.053942807 -0.01840814 0.092186086 
-0.13098012 -0.016832184 -0.11204637 
-0.1667948 -0.018772135 0.12943648 
-0.31338036 0.059036583 0.064676255 
0.3712726 0.08143939 -0.148137 
0.23493779 -0.00053080876 0.12181678 
0.17794317 0.05309866 0.09083646 
0.26454708 -0.021607906 -0.1258011 
-0.39054772 0.0057909433 -0.15140809 
0.40495598 0.063176125 -0.09955409 
0.2679075 -0.015991632 0.009741573 
-0.22693905 -0.016380113 -0.106643826 
-0.29531077 0.06379464 -0.12882666 
0.16870417 0.048514858 0.021442046 
-0.21469629 0.059971586 0.09231436 
-0.12644973 0.028735787 0.026897525 
-0.30790707 0.06893283 0.015752843 
-0.43092996 -0.028849136 -0.14564328 
-0.09815328 -0.017529035 -0.04527699 
0.2068869 0.063909486 0.07008261 
-0.171157 0.03290461 0.096002765 
0.21158409 0.006733778 0.058343876 
-0.41900146 -0.010144572 -0.14659427 
-0.41660878 0.047872234 -0.15911572 
0.43917474 0.02918563 -0.09668204 
-0.17612639 0.015523037 -0.14960536 
0.44842905 0.053939153 -0.09475608 
0.18829854 0.059077322 -0.1245504 
0.24478601 0.06355326 0.0054227496 
0.06511487 -0.006208456 0.115152135 
-0.18806604 -0.01115844 -0.08104315 
-0.124711886 -0.014687476 -0.09585428 
0.12638235 0.025695167 -0.01719589 
0.111873515 0.025267836 0.12636806 
0.08070428 0.017841004 -0.048219975 
-0.14536886 -0.017659787 0.10278218 
-0.22910473 0.0135864075 -0.15702663 
-0.11272452 -0.027389027 -0.0794141 
-0.040999934 -0.0049825474 0.13762824 
0.1369667 -0.018860502 0.06293933 
-0.43493867 0.0630923 -0.14884633 
0.24088344 0.06517263 0.08122285 
-0.08687362 0.013735706 0.03154552 
-0.056667585 -0.0200939 -0.11021225 
-0.35781106 0.09538275 -0.15213662 
0.31052706 0.054204997 -0.092047185 
-0.06975954 -0.02394402 -0.14398862 
0.21428943 0.06967964 0.1302173 
-0.45110455 0.058217693 -0.13064672 
-0.3736557 -0.0748444 -0.09616289 
-0.21021193 0.024136363 0.15044421 
0.32500744 0.07682198 -0.14448488 
0.00043079111 -0.0081087295 0.084608786 
0.23133278 0.068308346 -0.074064374 
-0.20621191 0.05392458 0.06031668 
-0.46527594 0.031674214 -0.10508783 
-0.18399407 0.02556031 -0.086220205 
0.37977472 0.08266012 -0.14563254 
-0.38229305 0.05654999 -0.13484232 
-0.17731413 -0.022111882 -0.04330069 
-0.23507564 0.056990914 0.046507888 
-0.086146034 -0.017359674 -0.11229779 
0.3968863 0.080983706 -0.14040357 
0.15466668 0.014809135 -0.013143598 
0.13186811 -0.019537278 0.0051359106 
-0.14182629 0.024363216 0.043320466 
-0.20016706 0.06399449 0.035946693 
0.2780014 0.062101707 -0.049744945 
-0.008470427 -0.021822052 0.08868133 
0.0913296 0.008495919 -0.10341177 
-0.30150098 0.07228753 -0.09777487 
0.30177048 -0.02678114 -0.1224127 
-0.30378568 0.037075758 0.15504974 
-0.310565 -0.05102154 -0.11550078 
-0.047460407 0.025914457 0.0895935 
0.23920256 0.06380913 -0.0062445863 
0.03538898 0.027238917 -0.13953064 
0.25847772 0.009373906 0.149399 
-0.13817026 -0.017542124 0.08959053 
