0.016472196 0.20749034 0.07738219 
-0.055496577 0.17045218 0.042919576 
0.065897375 -0.11861073 0.277287 
0.019924251 0.16226824 -0.16479294 
-0.09428641 -0.27897573 0.21334237 
0.025576128 0.1282581 0.09774355 
0.12644991 0.4071931 -0.046000145 
-0.006085922 0.24376519 -0.009098894 
-0.018730005 -0.05508787 0.2014418 
-0.18690398 -0.37539586 0.14747588 
0.09320111 0.25790814 -0.08090997 
0.08222969 -0.22998461 0.32065976 
-0.059985805 -0.3743586 0.20141254 
-0.06670621 -0.1277038 0.22310746 
0.1991147 0.40099585 -0.08377282 
0.013872247 0.23567773 0.04689058 
-0.14624988 -0.10746427 0.07133519 
0.08196414 0.10678898 0.19173819 
-0.0065014004 0.2004957 0.057792194 
0.16906108 0.39404953 0.01998546 
-0.24110015 -0.14676139 0.01606132 
-0.10050359 0.07734075 0.07858142 
0.1191773 0.42749617 -0.083287396 
-0.11346996 0.13527995 -0.04867741 
-0.20759232 -0.30371445 0.1417869 
0.23397854 0.3673593 0.035256363 
0.06618337 -0.07123821 0.27210793 
0.013863772 0.1702474 0.030596886 
-0.17413612 -0.10232708 0.13071388 
-0.18505345 -0.11951903 0.09940373 
-0.14874363 -0.054471992 -0.02176323 
0.15810262 0.3175792 0.024362493 
-0.19339654 -0.37323874 0.13879775 
0.14244321 0.37709436 -0.15683107 
-0.046250157 0.10406028 -0.23466836 
-0.17290522 -0.09766807 -0.030730637 
-0.18052764 -0.28531685 0.13331081 
0.050401937 0.12838869 -0.19371726 
0.15690395 0.45775348 -0.13665324 
-0.07248702 -0.33640894 0.23883434 
0.14548667 0.43386796 -0.15714677 
-0.07824972 -0.05541435 -0.26436532 
0.0362298 0.20574465 -0.15771072 
0.2404908 0.44001985 -0.022883475 
0.017773928 0.23836847 -0.09947625 
0.10263436 0.33434784 -0.05592691 
-0.06458439 0.053333487 -0.21498567 
-0.09802146 -0.072422124 -0.26328477 
0.14872666 0.2618308 0.0396399 
-0.23044507 -0.22494708 0.115561955 
-0.2055016 -0.12233151 -0.023148613 
0.27468482 0.4301093 0.01557186 
0.0894085 0.14932661 -0.18109803 
-0.16713545 -0.086731836 -0.026881842 
-0.10477547 -0.06778046 0.10916169 
0.1356489 0.2998243 0.01468054 
0.13854991 0.4171481 -0.047807034 
-0.17072944 -0.007909017 0.029672854 
-0.23896219 -0.15575814 0.021311412 
0.20985112 0.41599956 -0.07868626 
0.036667943 0.20193858 -0.05559874 
0.073419005 0.167089 0.11154201 
0.074904546 0.33599144 -0.10496127 
-0.041900486 0.1452959 -0.059701063 
-0.18708012 -0.41046104 0.119326554 
-0.09937601 -0.03366077 0.13166091 
-0.1119225 -0.08130467 0.08798883 
-0.021399587 0.006513043 -0.2568415 
0.01575897 0.27498314 -0.07564585 
-0.06643394 -0.05696478 0.19607349 
0.21050933 0.42446688 -0.09392077 
-0.1832297 -0.26989684 0.15937585 
0.020450318 0.2082742 -0.14001763 
0.12523128 0.174008 0.1258342 
-0.17410193 -0.13036846 0.13881522 
0.1458658 0.43340978 -0.04721438 
-0.030214896 0.12920378 0.06133226 
-0.23493177 -0.11097749 0.0059549445 
0.0617515 -0.025832182 0.24748434 
-0.12256135 -0.10353946 -0.29296255 
-0.26707625 -0.1979305 0.008831461 
0.12999426 0.41803402 -0.038206432 
-0.23468035 -0.12868163 0.01653331 
0.024586977 0.24073914 -0.11430376 
0.17829464 0.3345023 0.04780099 
-0.11035769 0.06855975 -0.03832253 
-0.000298301 0.05837344 -0.23311077 
-0.013225569 -0.027641239 0.18259072 
-0.15239456 -4.6715202e-05 0.018648684 
-0.06046517 0.057544064 -0.21296006 
-0.117505915 0.007114414 0.13249755 
0.028559707 0.2503628 -0.104069725 
0.17923181 0.4139658 -0.006299899 
-0.20666946 -0.29207662 0.14589162 
-0.08017705 0.06732485 0.054616284 
-0.07740878 0.052517988 -0.22428621 
0.1032618 0.3151693 -0.10220417 
0.19579476 0.30368963 0.05035073 
0.06782984 -0.199215 0.3212879 
-0.21624993 -0.18629356 -0.2908698 
0.057736598 0.30151117 -0.024624392 
0.14562523 0.37484038 -0.054881535 
-0.10089812 0.13569438 -0.05858394 
0.15062816 0.4314387 -0.041341513 
0.07500953 0.1752014 0.12102463 
0.05539517 0.29956883 -0.026513971 
0.11064949 0.4012728 -0.15104796 
0.24645244 0.3910466 0.034910016 
0.20099474 0.41267872 -0.09552991 
-0.12312665 0.099570595 -0.006620177 
0.11845974 0.39086908 -0.07940056 
-0.051367983 -0.08658916 0.21138601 
-0.27201048 -0.26595068 -0.015470021 
-0.1601565 0.017845055 -0.043454476 
0.018014243 0.23580214 -0.10953267 
0.10633839 0.18809083 -0.12351758 
0.08519608 -0.2343064 0.30759305 
-0.0055666654 0.13870087 -0.19614734 
0.03186946 0.19841228 -0.20819798 
0.15494028 0.44238356 -0.066308714 
-0.2308771 -0.09006673 -0.01934097 
0.1731867 0.3183621 -0.018241607 
-0.17923817 0.022324778 0.0036996063 
0.107335836 0.30495784 -0.0062226187 
-0.16223268 -0.45244694 0.13103636 
0.1023604 0.32516736 -0.006154046 
-0.026258998 0.15238738 -0.05632522 
-0.22134951 -0.20628904 0.12518254 
-0.09250595 0.14181046 -0.062276024 
0.002750769 0.06662122 -0.2288009 
0.16612458 0.42095944 0.051158387 
-0.14349604 -0.09918741 -0.29116097 
0.1620298 0.4319926 -0.16259515 
-0.24302396 -0.3260769 0.018077334 
0.16678724 0.3409148 0.01996588 
0.230139 0.41575918 0.046872713 
-0.21652314 -0.120307535 -0.03033354 
0.22659867 0.4145989 -0.0052167918 
-0.1970812 -0.22384757 0.11593558 
-0.26430216 -0.27662694 0.015538369 
0.056274794 -0.043456096 0.20784907 
-0.051561456 -0.34582105 0.23171 
0.18379904 0.322924 -0.06876075 
0.00132147 -0.030766219 0.14017166 
-0.26348943 -0.2009443 -0.02086598 
-0.036984906 -0.09781093 0.1687922 
-0.13246617 -0.08894179 0.06445038 
-0.0257514 -0.08710123 0.1634194 
0.08590553 0.29910296 0.004132622 
-0.081146926 0.14369287 -0.065386236 
0.010255222 0.22808622 -0.105142504 
0.13461898 0.38510844 -0.05145259 
0.020204805 0.14194994 0.08563491 
-0.15108243 -0.08676483 0.13905005 
0.0884463 0.28811395 -0.06691827 
-0.11550554 -0.016414225 0.14512293 
-0.15448433 -0.08925326 -0.28149673 
0.066116035 0.22107425 -0.04112798 
0.06433714 0.091285355 0.16783693 
0.08387309 0.2899276 -0.054387715 
0.07368416 0.18486142 -0.17124356 
-0.112657756 -0.22982909 0.22804466 
0.06718017 -0.1414903 0.30000314 
0.025862362 0.19284868 -0.046840888 
-0.13715976 -0.11053296 -0.29314443 
0.17603956 0.32405806 -0.080952086 
0.08612338 0.36201426 -0.15077205 
-0.06844148 0.024509922 -0.22560602 
0.124994166 0.4360402 -0.13598451 
-0.18547289 -0.13323501 -0.2696514 
0.12486763 0.22095065 0.07281998 
-0.009828993 0.139016 -0.20051357 
0.11244394 0.2853914 0.0449591 
-0.022595432 0.029913398 0.17493792 
0.19277337 0.22441655 0.040401235 
0.16697577 0.43046805 -0.04922358 
-0.21503407 -0.24441393 0.140992 
0.029801974 0.21790883 -0.04208928 
-0.14265364 -0.009760151 0.114588305 
-0.20291129 -0.012903194 -0.026384417 
-0.24473348 -0.3079455 -0.0017824915 
-0.07645882 -0.14711788 0.22797385 
0.11546263 0.28775138 -0.023449287 
-0.14682704 -0.07616148 -0.27962807 
0.018271744 0.21578373 -0.026063591 
-0.10881623 0.13610822 -0.023532033 
0.1491724 0.28833076 0.022825949 
-0.16226631 -0.4105167 0.15558058 
-0.14275394 -0.05120575 -0.016583195 
-0.20219952 -0.18855184 -0.30327994 
-0.14155553 -0.052803077 -0.008450316 
-0.03709487 0.18990232 -0.09808918 
0.13989624 0.33356115 -0.14915223 
-0.004615368 0.26925668 -0.085752934 
0.1737986 0.3699974 0.04185105 
0.16987069 0.32337672 -0.021929141 
0.06413187 0.23072822 0.009146328 
-0.21750945 -0.23052213 0.09887057 
0.15449399 0.31768897 0.014184335 
-0.15430467 -0.004319563 -0.046765905 
0.0046218876 0.08126394 -0.26077422 
-0.13110133 -0.0041281627 0.12994458 
-0.19969071 -0.15366343 0.10679948 
-0.22977008 -0.38281247 0.006313676 
-0.23084734 -0.4218562 -0.015189217 
0.034698937 0.274077 0.022089502 
-0.14220576 -0.016451973 0.08392796 
-0.045866076 -0.020374786 0.12777933 
0.182646 0.46101326 -0.07224411 
0.04901118 0.2912139 -0.008547904 
-0.044495136 -0.086724475 0.13899104 
0.077485904 0.2758071 0.016203359 
-0.19285257 -0.1500122 0.09533906 
0.020459317 0.020049382 0.22904295 
0.11216067 0.36777338 -0.017323077 
0.0884897 0.22507058 0.01846592 
0.1026461 0.26564437 -0.03586378 
0.0648015 0.32048777 -0.119215734 
0.024067657 0.2567528 0.042429365 
0.21028687 0.438931 -0.010837855 
0.21654983 0.28422347 0.04050738 
-0.033678688 -0.028793596 0.18988146 
-0.03133207 0.16768672 -0.08147184 
-0.10645257 0.14644845 -0.04947274 
-0.0038459324 0.163009 0.09420759 
0.08663914 0.20469925 0.1198897 
0.17008741 0.36148304 -0.056386564 
0.20262802 0.40460783 -0.04776598 
-0.20361637 -0.16222237 0.11942985 
-0.16503005 -0.06698988 0.09632298 
-0.12394742 0.054867994 -0.0027250692 
0.053184457 0.18089065 -0.14097002 
0.0023016196 0.27569842 -0.056083538 
-0.02107854 0.24283871 0.009814804 
0.08830206 0.14722165 0.12016031 
0.14835504 0.34170094 0.011085712 
-0.08616092 0.052421313 0.11100757 
0.1880119 0.3925763 -0.044266753 
-0.2078023 -0.23992394 0.14868161 
0.006869277 0.2123309 -0.016969277 
-0.11285836 -0.019594505 0.14374161 
0.17003493 0.3063407 -0.021593891 
-0.04592485 0.21988852 -0.0978241 
0.14552338 0.20579389 0.026291933 
-0.2435594 -0.23224963 -0.0015810268 
-0.085081674 -0.15187936 0.18563038 
0.12459987 0.21293825 0.074533984 
-0.017525993 0.2154571 -0.02419421 
0.19799411 0.34513894 0.02894251 
0.16821773 0.38149482 -0.11327209 
-0.19653389 -0.22808237 0.116238706 
0.01045299 0.23940758 -0.002318542 
-0.097290196 -0.2633824 0.21110062 
0.121525764 0.33555704 -0.037266605 
0.10274565 0.30009165 -0.06521157 
-0.07129252 -0.36192462 0.22513966 
-0.12390586 -0.053175636 -0.24865639 
-0.014157202 -0.0037631306 0.124845535 
-0.06595296 -0.119745165 0.17108048 
-0.14967997 0.07846209 -0.021767063 
0.07926757 0.16549183 -0.21547584 
0.071143925 -0.11576051 0.2892915 
0.0580963 -0.107178755 0.28904542 
-0.0050166724 -0.034617785 0.13820149 
-0.07633773 -0.004186548 0.085829705 
0.14712182 0.35875726 -0.111073576 
0.16502856 0.365165 -0.10129857 
-0.01335745 0.11620732 -0.20287973 
-0.10550659 -0.025681527 0.137176 
0.07626878 0.33696538 -0.10356004 
0.081106745 0.14740996 -0.16562004 
0.1601293 0.4115212 0.024534477 
-0.08298648 0.024173113 -0.23054536 
-0.06782909 -0.24137884 0.23940003 
0.17919011 0.3971163 -0.1303744 
-0.011952098 0.0055032615 0.18785854 
-0.05588284 0.13845283 -0.030561961 
0.06441378 0.25227043 0.022137178 
0.048325356 0.2774179 -0.094576746 
0.20116022 0.4499993 0.032567643 
-0.14016317 -0.013105563 -0.027667062 
0.18324615 0.42328972 -0.040618923 
-0.05093884 0.17495157 0.023640407 
0.052719314 0.21617305 -0.07497727 
-0.019409427 0.015963214 0.12358739 
-0.05660286 -0.087277666 0.14257471 
0.15836576 0.44706568 -0.1581645 
-0.066406935 -0.2929181 0.23275754 
0.058738433 0.24612339 0.052662786 
0.0740705 0.010485426 0.23590554 
-0.10250202 -0.00574238 -0.27333298 
-0.10823095 -0.03767326 -0.2859394 
-0.193074 -0.049855094 0.022139514 
-0.27284613 -0.27283978 0.0013007302 
-0.1952355 -0.2833924 0.10599448 
-0.020569375 -0.09144888 0.19043706 
0.017104564 0.18621586 -0.015645172 
0.19773363 0.27841946 0.0373995 
-0.106870666 -0.003986412 0.06069555 
-0.072155304 -0.36881298 0.20484342 
-0.075337015 -0.083781965 0.18542942 
-0.20904921 -0.31952187 0.13112839 
0.043518055 0.18228333 -0.13075626 
-0.18825954 -0.01394279 -0.043672953 
-0.14097452 -0.09509895 -0.2912357 
0.23488434 0.3694857 0.027636565 
-0.1934805 -0.048403807 -0.04195021 
0.017125813 0.27600348 -0.014054218 
-0.0024419292 0.065520465 0.120081335 
-0.018604154 0.037165936 0.124231294 
0.09030059 0.20528595 0.0387838 
0.1702423 0.44840276 -0.064841375 
-0.0001013078 0.1737245 0.07982615 
-0.109922655 -0.0046513653 -0.243904 
-0.060211256 -0.4209686 0.22599643 
-0.2336107 -0.33363733 0.0035574539 
-0.043119702 0.14130808 -0.043656506 
0.0032450422 0.22936507 -0.10669366 
-0.067630716 -0.02919251 -0.23668139 
0.062292147 0.10441527 0.1631611 
-0.23866417 -0.1174542 -0.0007966615 
0.17369652 0.33251035 -0.034360893 
-0.08445441 -0.1749612 0.19714013 
-0.09726272 -0.06341696 0.108089074 
-0.22872911 -0.082453944 -0.02139391 
-0.10575774 -0.23523848 0.21794224 
0.09860616 0.29221988 0.017553063 
-0.25525185 -0.18645865 -0.019400796 
-0.15892822 0.044373367 0.00857727 
0.14744918 0.4156376 -0.164621 
0.09198449 0.111224815 0.16238546 
-0.047497604 0.22648616 -0.09170729 
-0.22350648 -0.23919845 0.1329628 
-0.12665746 0.00033890194 0.13112244 
0.16437742 0.3272784 -0.09743567 
0.06014833 0.10016245 0.16601989 
-0.14860696 -0.13675009 0.13404736 
-0.10189721 0.008882495 -0.25891176 
-0.17031871 0.041483708 -0.005853546 
0.16052298 0.35083494 -0.016471917 
0.07410537 -0.0071422663 0.1962381 
0.10963607 0.29435554 0.030278146 
0.00731156 0.19891961 0.04735171 
0.18651795 0.39514402 -0.106888495 
-0.14306568 -0.16103497 -0.28140143 
-0.06511214 0.122480854 0.07917851 
-0.10850249 0.002859369 -0.25273904 
-0.103437535 -0.045059543 -0.24313629 
0.035877366 0.27745357 0.013362071 
0.09466843 0.090966746 0.18978295 
-0.16526304 -0.11894402 -0.26027924 
-0.05967162 0.065339856 0.06348743 
-0.25934514 -0.29989564 -0.02040516 
0.15723166 0.29922292 0.07022024 
0.02497078 0.20766222 -0.030416653 
0.085288815 0.24556737 0.088763975 
-0.06500555 0.18812013 -0.08170182 
-0.22906193 -0.18521069 0.019333523 
-0.0066015553 0.050059233 -0.26866558 
-0.17948575 -0.4215134 0.1443628 
0.18855567 0.38174728 -0.07066776 
-0.15558413 -0.40737137 0.13569051 
-0.15310347 -0.1413771 0.12382318 
-0.0063754227 0.21399955 -0.12647386 
-0.018792558 0.03236327 -0.22387551 
0.12096377 0.39877877 -0.051135782 
0.10506058 0.3614366 -0.16624737 
0.051755995 0.28202587 -0.10193334 
0.06724317 -0.25212228 0.29671916 
-0.13430695 -0.1100059 -0.25860792 
-0.13338253 -0.026594706 0.14071348 
-0.08526 0.01718535 0.12178595 
0.086736925 0.2368003 -0.14915675 
0.0017048533 0.18440247 -0.030363895 
0.15722188 0.4217509 0.020600555 
-0.10084022 -0.08598549 0.115080014 
0.15001819 0.35842144 -0.1386524 
-0.008690127 -0.045458008 0.1575301 
0.07647817 0.34492993 -0.098264985 
0.08659283 0.34212852 -0.09425003 
0.1720632 0.4737273 -0.090081155 
-0.19086741 -0.12845118 0.11972203 
-0.19803602 -0.20168719 0.10672987 
0.152837 0.40017223 0.014552019 
0.060579162 -0.06410482 0.22109264 
0.027889568 0.269886 0.027563259 
-0.12483126 -0.05488687 -0.2487864 
-0.04568238 0.17509304 0.008141456 
0.14780995 0.41943628 -0.04445073 
0.040665973 -0.1045562 0.2581438 
0.17601608 0.43467057 0.045399126 
0.036124337 0.0055756667 0.18733822 
-0.06596568 -0.3617219 0.23277126 
0.022651918 0.16940813 -0.16080977 
-0.022064108 -0.06798104 0.15068603 
-0.04901713 -0.033415817 -0.2523556 
0.18325582 0.36748484 -0.065825604 
0.21365829 0.39127606 -0.003419434 
0.027740166 0.18383828 -0.16062272 
-0.009404968 0.1471177 0.107472144 
0.123547114 0.22224739 0.088373005 
-0.03193591 0.116585195 0.041050404 
-0.1544924 -0.4100958 0.1521516 
0.21033262 0.27496243 0.02805146 
-0.020817997 0.24598174 -0.08205389 
0.14823936 0.42477566 -0.03395007 
0.04544359 0.16054907 0.08602498 
-0.093932725 -0.07078189 -0.28381562 
-0.06242591 0.013634574 -0.27707925 
0.049304083 0.27281117 -0.09824548 
-0.22092375 -0.2256771 0.13497548 
7.090429e-06 0.049736597 0.1339299 
0.16721644 0.3342983 -0.0113298725 
-0.25991765 -0.24914359 -0.026529917 
-0.073383726 -0.12636453 0.22036763 
0.09400373 0.2589233 -0.11879841 
0.08543461 0.22563547 -0.022717122 
0.15389794 0.45428747 -0.13638389 
-0.14881177 0.028440215 -0.0391443 
0.108617544 0.41123882 -0.051047966 
-0.24206783 -0.13245952 0.007858153 
-0.04005325 -0.10481984 0.17970689 
0.000121736215 0.12313781 -0.24801351 
-0.07127393 0.13805844 0.061977055 
0.07532634 0.1652013 0.10527858 
0.082308315 0.28222886 0.06274742 
0.06130989 0.2567616 0.04729104 
-0.06572153 -0.056160297 0.15469402 
-0.012762562 -0.0562336 0.17277822 
0.0791684 -0.06579783 0.24228823 
-0.14867537 -0.12137427 -0.28724247 
-0.012178779 0.21961062 -0.10071472 
-0.16533977 -0.02310715 0.021858506 
0.02368223 0.24924906 -0.10524491 
0.19724897 0.37336513 0.029061511 
0.032336593 -0.03951598 0.21601495 
-0.1631546 -0.1589433 -0.29438686 
-0.057588525 -0.0721958 0.1403589 
0.19124484 0.37496442 0.023508247 
0.15362427 0.40080777 0.012594723 
-0.17207858 -0.08161966 0.11423397 
0.15594904 0.4445311 -0.06827512 
-0.22364934 -0.0807915 0.00068696676 
-0.098879546 -0.24306576 0.21591225 
-0.24804114 -0.30395702 -0.005662547 
0.14114778 0.37723842 -0.059197597 
-0.08952009 -0.13418102 0.19509834 
-0.20684151 -0.19451463 0.14297727 
-0.23050883 -0.107654884 0.0139098335 
0.09505156 0.1632887 0.096084066 
-0.17585342 -0.06822719 0.021196263 
0.17128211 0.32130808 -0.02070865 
0.073351234 0.11857589 0.1502832 
0.17800058 0.27508613 0.04391848 
0.07891395 0.12418678 0.14458291 
0.0046281787 0.20211157 -0.13066418 
-0.053175204 -0.03722334 0.14472012 
-0.08688856 -0.3084275 0.21584737 
0.0393257 -0.07081227 0.25980717 
-0.24961455 -0.28801358 -0.011727849 
-0.11630843 -0.0048272843 0.14336327 
-0.18826038 -0.0862653 0.0309608 
-0.014870409 0.063080095 0.11908953 
-0.24826652 -0.13895093 -0.0039628786 
0.081528954 0.25331137 -0.043606225 
0.046419214 0.27638862 -0.08815498 
0.13194638 0.34594417 -0.16581464 
0.1847709 0.38738555 0.05821575 
-0.028967919 0.21865386 -0.026915887 
-0.20239738 -0.12940525 -0.0018442374 
0.14735141 0.34986266 -0.02486064 
0.1846404 0.4395467 -0.058409203 
-0.0370397 -0.06332791 0.13713518 
0.14195181 0.39459214 -0.010074382 
-0.06082497 0.1520197 0.031519383 
0.16277012 0.38188273 0.0123632895 
-2.540695e-05 0.046385687 -0.2529262 
0.00096658716 0.18268205 -0.10874641 
0.09254321 0.17973374 -0.113406144 
-0.035483457 -0.007489755 0.12150818 
-0.014811237 0.06945645 0.15656799 
0.07082324 0.036719184 0.1837776 
-0.08014275 -0.20352699 0.2485401 
0.18760769 0.33087552 -0.03347173 
0.11088775 0.3544222 -0.05448923 
0.08545152 0.26178885 0.0801572 
-0.0107195685 0.16399927 -0.06515024 
0.029596128 0.2248747 0.030628948 
0.17446724 0.42427874 -0.04708435 
0.13037884 0.27144203 0.07985812 
-0.07814124 -0.3199686 0.23796052 
0.25805175 0.40796113 0.028858779 
-0.14124943 -0.12306804 0.1342299 
-0.083631456 0.013001033 -0.23249088 
0.04305929 0.07039034 0.1992854 
-0.06059716 -0.049050484 0.19659004 
-0.09836485 -0.26126522 0.21291462 
-0.08186967 -0.17361717 0.20144004 
-0.119150095 0.020672645 0.06382622 
-0.090736724 -0.2942628 0.22405039 
0.084716104 0.28969157 0.046727415 
-0.21204549 -0.26449692 0.0990141 
-0.050846517 0.18044569 0.02965674 
0.1455459 0.44923455 -0.0670287 
0.1709827 0.39808613 0.054161623 
-0.044455208 0.06012353 -0.2738615 
0.008538581 0.20207977 0.04684866 
0.15691416 0.39458427 0.008937924 
-0.046813924 0.022491125 0.13701266 
-0.09733481 0.109761834 -0.053522296 
-0.19631352 -0.2701459 0.10219692 
0.17312752 0.31971955 -0.017453209 
0.036669314 0.19185805 0.003374326 
0.07564476 0.2979421 -0.114606746 
0.07727585 0.21363987 -0.09664725 
0.03143224 0.14074954 0.091239 
0.11032309 0.3025022 0.046727873 
-0.08164692 -0.12620986 0.17900874 
0.068656415 0.23710424 -0.08133091 
0.09889285 0.18463911 -0.12574315 
-0.05107793 0.080447175 0.06946275 
-0.07411269 0.027550666 0.10170852 
0.107531056 0.3798702 -0.16346617 
-0.0054237293 0.27323496 -0.06551052 
-0.14067873 -0.05033593 -0.012956269 
0.010530456 0.18015192 -0.1905903 
0.13977976 0.46610495 -0.11216021 
0.06687154 0.21967971 0.07977797 
-0.1686506 -0.15517968 -0.26230928 
0.025469437 0.13260733 -0.17665583 
0.074002706 0.18488654 0.0947913 
0.1333937 0.36324936 -0.011702635 
0.0498755 0.2323113 -0.08833618 
0.107764155 0.20640402 -0.116411805 
-0.0377216 -0.07906251 0.13866706 
0.11323094 0.31173536 -0.041779418 
0.11401713 0.32758453 -0.058625128 
0.2667348 0.4258495 0.026233098 
0.19841507 0.4485466 0.034135375 
0.09016389 0.2820189 -0.05310849 
0.24268982 0.41236722 -0.01073664 
0.117360614 0.4111331 -0.13372682 
-0.08560759 0.06903503 0.053957857 
0.035665978 0.020977711 0.18792199 
0.0058083995 0.24701129 -0.103247754 
-0.26924062 -0.20093349 -0.016404979 
-0.056499407 -0.14938411 0.22540629 
0.15118994 0.31947273 0.025890457 
0.065668575 0.33414343 -0.12316401 
0.15107355 0.3263113 -0.1173796 
0.17884035 0.3260032 -0.08003221 
0.07513586 0.21943797 -0.038130734 
-0.00018543404 0.19862548 -0.12710573 
-0.1943603 -0.13705415 0.11585053 
0.16323474 0.42827576 -0.04747033 
-0.007704878 0.19356014 -0.11054389 
-0.17671627 0.010919398 0.017668989 
-0.10488827 -0.086500406 0.10364446 
0.05766966 0.18089351 0.0721532 
-0.05659656 0.12791423 0.077344924 
0.17392948 0.4501388 -0.05336888 
0.021069184 0.19082946 0.046724297 
0.07083938 0.22188602 0.07792791 
-0.028488858 0.038636554 -0.21941791 
-0.097611636 -0.27236176 0.22397739 
-0.12423618 0.09941932 -0.006789441 
-0.15793085 -0.061071046 0.090260774 
0.19744433 0.31987095 0.05096197 
-0.19300178 -0.36186454 0.14419518 
-0.107972346 -0.02651616 -0.23513877 
-0.10004869 0.046716318 0.109725274 
-0.040050462 0.034110643 -0.28515905 
0.097518176 0.2065012 0.06000676 
0.19309945 0.3338817 -0.033775065 
0.07906192 0.2250268 0.019265462 
0.13124643 0.17928098 0.028766204 
-0.02861475 0.16628 -0.07928617 
0.21941693 0.3834584 0.0054592965 
0.17976013 0.4087271 -0.14573103 
-0.25581256 -0.343915 0.0018271956 
-0.010021183 0.1523288 0.048179403 
-0.10128797 -0.2578343 0.2249807 
-0.051258933 0.21676897 -0.094442904 
-0.0724107 0.01642363 0.08705539 
-0.1051829 -0.101501524 -0.2697668 
0.06793383 0.3380275 -0.1263126 
-0.03181604 -0.02936333 0.19021615 
0.119970605 0.17288332 0.10174275 
0.09493468 0.30489075 -0.10666511 
0.12747623 0.43388915 -0.0835207 
-0.17418166 -0.054565445 -0.043032408 
0.097104475 0.3588301 -0.05530541 
-0.25078467 -0.3626218 -0.021270279 
0.070022725 0.24978243 0.026857747 
-0.2128315 -0.18039036 0.11620618 
0.027045729 0.2313148 0.035031386 
-0.063521765 0.083323546 -0.24141964 
0.07520925 0.33318442 -0.14921778 
-0.004047909 0.10158359 -0.26048675 
-0.12167274 0.037969727 0.068605036 
0.049803592 -0.05595684 0.20724998 
-0.14699535 -0.11029951 0.07319576 
0.18262129 0.43332213 0.002242489 
0.17475908 0.37642643 -0.0352706 
0.13531753 0.37935597 -0.06835448 
-0.07226567 -0.32915416 0.21039249 
-0.15291956 -0.12321732 -0.2870049 
0.15932728 0.42489177 0.022799255 
-0.022845065 -0.06806971 0.20530681 
0.00025093008 0.05280118 -0.24131852 
0.11309186 0.19272856 0.05324651 
-0.034753922 0.024102543 0.17408726 
0.19330104 0.4337171 -0.15168652 
-0.1853379 -0.11812832 0.125299 
-0.14882585 0.050909173 0.010018262 
0.027963435 0.0011546019 0.2387525 
-0.14701977 -0.07755842 -0.24662893 
0.01615179 0.102858484 -0.20488104 
-0.2312386 -0.11508774 -0.02374577 
0.14733477 0.3563192 -0.12525265 
0.15045875 0.3755115 -0.0421355 
-0.13148645 -0.100430496 0.14090624 
-0.101559915 0.03477089 0.11776889 
0.22233623 0.24597612 0.024622904 
0.008665435 0.23297225 -0.10736299 
0.090116866 0.19234854 0.13312805 
-0.17057113 -0.47080523 0.14499214 
-0.07948024 -0.26008564 0.24933776 
0.17833017 0.36204147 -0.10299207 
-0.15680404 -0.4121708 0.15334806 
-0.18351854 -0.16222358 0.09156786 
0.19806275 0.4326811 -0.14064087 
0.20892945 0.28739986 0.045607172 
-0.16883075 -0.40168494 0.15769501 
0.07145016 0.035889816 0.23459934 
-0.13418719 -0.06285395 0.13782862 
0.13279593 0.19239718 0.04552429 
0.14993155 0.40538868 0.022498887 
0.08883704 -0.2845184 0.30610773 
-0.26582637 -0.29973307 -0.017405853 
0.25957322 0.4250427 0.032498214 
-0.23955227 -0.40854073 -0.0011394635 
-0.18216625 -0.41993845 0.14137278 
-0.17661309 -0.1562212 0.10057443 
-0.19850239 -0.08477932 -0.045801643 
0.037687447 0.22232845 -0.030940404 
-0.074447006 -0.14381921 0.19098802 
-0.09672169 -0.052436247 -0.28861833 
-0.06365404 0.13121217 -0.05847165 
0.081503816 0.2656724 0.010591505 
-0.18609247 -0.02464807 -0.04943881 
-0.2689188 -0.24997042 0.014139533 
0.16477735 0.2691618 0.059440203 
-0.1792961 -0.099040665 0.02635863 
-0.19752972 -0.20134406 -0.29358196 
0.09097001 0.38558504 -0.048249327 
-0.053423196 -0.33487186 0.2381119 
0.11455845 0.4100477 -0.058197025 
0.06431747 0.12493448 0.15057749 
-0.088761695 -0.21173413 0.24843478 
0.038079105 0.17984433 -0.11364459 
0.037213825 0.13719012 -0.16792676 
0.088092506 -0.24543191 0.31813738 
0.17796066 0.47042605 -0.06969733 
-0.16776472 -0.39403728 0.12969477 
0.13525835 0.29040578 0.004610077 
0.0011307232 0.23395765 -0.10954808 
0.13736685 0.35980436 -0.13142294 
0.039577823 -0.09402226 0.2561854 
0.07335725 -0.08729547 0.2649784 
0.18496953 0.2449374 0.028870536 
-0.10460459 0.10021686 -0.010814673 
-0.2181881 -0.16248895 0.020034483 
-0.055284023 -0.35163313 0.22188924 
0.1647061 0.48642102 -0.09245153 
0.10762701 0.28869078 0.046380784 
-0.07171089 -0.18580247 0.22273879 
-0.0638186 0.11350802 0.03601893 
0.09113616 0.18955252 0.13597251 
-0.030861333 0.13741419 0.06289742 
-0.1576966 -0.4478433 0.13855891 
-0.17224544 -0.17716013 -0.29108784 
0.0068191215 -0.012750664 0.16875605 
0.09804621 0.28956756 -0.10068879 
-0.018842613 -0.030454906 0.18723708 
0.014318254 0.078893885 -0.22973773 
-0.10800736 -0.096888885 0.10943336 
-0.22171944 -0.16190904 0.013089091 
-0.25808078 -0.34636152 -0.0050759953 
0.17069933 0.434805 0.036863305 
-0.06480742 -0.24777673 0.24723728 
-0.1920905 -0.07409653 0.026116509 
-0.0975449 -0.26676625 0.23154674 
0.19632919 0.33268347 0.03486143 
0.2646702 0.42776343 -0.005565291 
0.09805802 0.3354508 -0.05551114 
0.008673532 0.2129399 -0.08521829 
0.020352665 0.2713867 0.015364685 
0.19452715 0.22698 0.05483867 
0.20561537 0.4009432 -0.06826693 
-0.09703519 -0.25430042 0.2075931 
0.17204784 0.42639947 0.05185802 
0.10039674 0.3159619 -0.14860274 
-0.16997889 -0.16818288 0.12948298 
0.06394315 0.25928298 -0.04282716 
-0.1291344 0.03938208 -4.895657e-05 
-0.070289806 -0.117471315 0.16825168 
-0.087982856 -0.1288437 0.1942513 
-0.18841596 -0.3750989 0.11404403 
-0.2621692 -0.19369832 0.014562468 
0.10142311 0.4114741 -0.059477367 
0.2141882 0.45707092 0.0041578347 
0.102535315 0.1695018 0.15343358 
0.04677782 0.07602947 0.19998285 
-0.15466756 -0.06205557 0.008412893 
0.23145948 0.46893147 0.013259549 
0.19540918 0.28746617 0.038520154 
-0.05029227 0.09507847 0.07794393 
0.15867703 0.37415242 -0.013380563 
0.18641356 0.46874377 -0.06660169 
-0.13082027 -0.06519497 -0.24840274 
0.021772714 0.011815186 0.20528144 
0.008088674 0.26271772 -0.021104954 
0.22188419 0.44964212 0.04041443 
0.15574107 0.48184916 -0.10564524 
-0.10307638 0.00943723 0.13647816 
-0.049336 0.17963785 0.018189043 
0.13076805 0.3161613 -0.10278747 
0.24698928 0.40893742 0.0044319634 
0.1574788 0.369243 -0.04733664 
0.1433368 0.4045321 -0.014662474 
0.0011956097 0.18039079 -0.033917904 
-0.089978136 -0.14121093 0.1923135 
0.11356279 0.25986892 0.008925864 
-0.074855864 -0.3587187 0.21304472 
0.060174517 0.25498286 -0.1150679 
0.009920883 0.11282993 0.13100092 
0.15253897 0.28140864 0.08349651 
0.04632728 0.21234283 -0.1926576 
-0.18343708 -0.16983144 -0.2962613 
-0.00505217 0.19157985 -0.026086424 
0.003418877 0.10247736 0.13932702 
-0.18530947 -0.016283559 0.0292317 
-0.04898832 0.08647646 0.056360457 
0.2141097 0.34918073 0.046746142 
-0.06483802 -0.049909733 0.16668224 
0.11430142 0.419915 -0.05649186 
-0.1386238 -0.05035529 -0.0034675635 
-0.246234 -0.34678903 -0.012920218 
0.17330608 0.45034263 -0.06573581 
0.05210025 0.17164557 0.08661576 
-0.0061128256 0.119390555 -0.24842845 
-0.11933037 0.036063347 -0.023010388 
0.053525962 0.17946796 -0.14365692 
0.18076709 0.4026003 -0.13370228 
-0.24662761 -0.37505272 -0.014443715 
-0.038136758 -0.10640649 0.18553779 
0.16403295 0.2718142 0.049562465 
0.057550754 0.012282012 0.18292119 
0.16507226 0.36930484 -0.13891359 
-0.054937072 0.07337494 0.06367212 
-0.05750373 -0.024679814 -0.28232005 
-0.22238316 -0.24888936 0.10937164 
-0.023608027 0.16701703 -0.032788035 
0.07405857 0.3751403 -0.09258626 
0.077951014 0.36018696 -0.13511974 
0.074173465 0.229442 -0.1676744 
0.1462444 0.46933964 -0.09277705 
0.020661455 0.25636902 -0.034058012 
0.0770268 0.2880202 0.039150137 
-0.016836146 0.23780365 -0.009948382 
0.025867265 -0.00044084978 0.23728862 
-0.08070654 -0.3142032 0.23649235 
-0.06866214 0.060731698 -0.21968488 
0.1186672 0.3631036 -0.016976723 
0.11836214 0.32051173 -0.14196393 
0.11777549 0.39194018 -0.16357704 
0.19270052 0.24090865 0.023019198 
-0.24645329 -0.22092795 -0.016583065 
0.004776121 0.24111028 0.006368835 
0.0030871017 0.2689885 -0.091327295 
0.17457691 0.46334505 -0.160081 
0.16412997 0.45937818 -0.15619951 
0.19526137 0.31314498 0.05031374 
0.14151596 0.21618195 0.097366154 
-0.07615065 -0.01687035 0.088383116 
0.071239546 0.27039796 0.051076874 
0.016812727 0.13602315 0.120526955 
0.22192794 0.4434954 0.0025952652 
-0.1428969 -0.020844944 0.08934427 
-0.18707532 -0.19206236 0.11991137 
-0.006751761 0.05725236 -0.26822865 
0.008477924 0.14431189 0.083263054 
0.06253477 0.13647252 -0.22230826 
-0.14439513 0.054870963 0.008531734 
0.058234792 0.28649554 -0.06694046 
-0.080616996 -0.0032185258 0.07809827 
0.06465112 -0.18948956 0.31578213 
-0.22278924 -0.38151953 0.0026348645 
-0.20602486 -0.24228372 0.10291647 
0.0063498425 0.16463292 0.07391355 
-0.24814889 -0.24695301 -0.00809667 
0.15522464 0.3682458 -0.13980447 
-0.08300444 -0.034687415 0.08864187 
0.04195583 0.05497062 0.2128805 
0.2583577 0.4236902 0.03317724 
0.13827562 0.40721026 -0.16592552 
0.18652329 0.3424032 0.05821952 
-0.030065022 0.0067536733 -0.26609358 
-0.05061224 -0.11028855 0.17553736 
-0.15691715 -0.47929925 0.13934506 
0.0627054 0.18137957 -0.10567395 
0.03932645 0.2137336 -0.06354129 
-0.16580036 -0.09373878 -0.26283446 
0.051815476 0.23299485 -0.08796969 
-0.00020465686 0.15859951 0.017183548 
0.15290883 0.3329007 -0.13157943 
-0.23010454 -0.2395088 0.12394961 
-0.0541942 -0.3429529 0.24213871 
-0.19724612 -0.16621394 0.096970946 
0.055584524 0.23805544 -0.15775153 
-0.08320844 -0.31932178 0.22890097 
0.043108463 0.19890323 -0.21332893 
0.10056227 0.19487388 -0.13443664 
0.033375334 -0.020872645 0.20860808 
0.08149466 0.022543699 0.22809474 
0.06514831 0.33447015 -0.12028378 
0.21296634 0.23153645 0.040903065 
-0.18068084 -0.114211276 0.09369815 
-0.21869166 -0.09163849 -0.03879842 
-0.09927352 0.057305925 0.103314206 
-0.060695823 0.059935506 0.066396184 
0.1052594 0.33175042 -0.09753314 
-0.03792202 0.022669675 0.12815742 
-0.083631575 0.17656435 -0.043716226 
-0.06682248 -0.33634877 0.24264209 
0.068184584 0.23890129 0.010189533 
-0.07014277 0.120318115 -0.027101506 
-0.050768036 0.14630936 0.022337513 
0.053494513 -0.14199981 0.2999699 
-0.0057239826 0.19597164 -0.025482321 
-0.0936161 0.07242727 0.05337645 
0.10832795 0.3838029 -0.16223978 
-0.049015507 0.051652685 -0.21141009 
-0.1167427 -0.07828984 -0.25636572 
0.21930973 0.44181123 -0.10266823 
0.18132499 0.2638574 0.049168557 
0.04855833 0.22135115 -0.08384769 
-0.07050587 0.074063994 0.098682545 
0.18221135 0.43696064 -0.14774898 
-0.07786491 0.00398994 0.10282744 
-0.1737682 -0.45372584 0.12320773 
-0.0026970885 0.117461115 0.13787217 
-0.032327272 0.055647768 -0.21509635 
0.0674148 0.32554537 -0.053616807 
0.0018298356 0.18077992 -0.11808388 
0.22443339 0.42578167 0.04844979 
0.012958121 0.23531486 -0.13277462 
0.07645208 -0.33236262 0.3066074 
0.0633513 -0.17091186 0.2837353 
0.13718367 0.22039306 0.048268992 
-0.13219106 0.06637608 0.0029024507 
-0.10295349 -0.085896224 0.12889375 
-0.061908383 0.14809103 0.06156505 
0.038359422 -0.026149534 0.22883743 
0.08593771 0.2339745 -0.15568478 
0.21657073 0.43445715 -0.09574349 
-0.22676213 -0.21585792 0.12142427 
0.082983226 0.30933976 -0.13889249 
0.0044318447 0.09197099 0.13713501 
-0.18547608 -0.016291426 0.029131996 
0.045606002 0.06658388 0.20616654 
0.11601156 0.29880157 0.03540128 
-0.1492059 -0.078130156 -0.24739923 
-0.22366233 -0.39383614 -0.0036683814 
-0.20021057 -0.11596473 -0.029495467 
-0.17319512 -0.1809171 0.1498559 
0.23102978 0.4259563 -0.019405926 
-0.1964636 -0.15994984 -0.27713647 
0.1849099 0.4023164 -0.034057096 
0.10457745 0.28885332 -0.073020056 
0.10543559 0.4070386 -0.049710624 
0.04718366 0.2511693 -0.04409667 
0.0725455 0.23715746 0.08306424 
0.124970056 0.17718476 0.103309155 
-0.00830042 0.15512347 0.047711506 
0.061917957 0.20282707 -0.023703534 
0.059243895 0.23397654 -0.08317002 
-0.15822005 -0.12268431 0.08185961 
0.049885876 0.25768405 -0.0755524 
-0.18558116 -0.4020451 0.14782393 
0.14978781 0.41766107 -0.025022645 
-0.088064 -0.06451763 -0.26617137 
0.016111525 0.17191792 0.00046201263 
0.044632316 0.2330203 -0.14975989 
0.2596379 0.41972327 0.0058014984 
-0.04948511 0.2366715 -0.076025404 
0.053218562 0.07681689 0.17736907 
-0.08797666 0.01401884 -0.26657653 
0.25174555 0.39180127 0.019281507 
0.17214212 0.3240712 -0.0028099103 
-0.15114705 -0.123469196 -0.28739747 
0.2345715 0.3761993 0.019930655 
0.21699066 0.23471065 0.040466405 
-0.18512294 -0.35215214 0.12348478 
0.18091945 0.4222122 -0.15707573 
-0.19227228 -0.31901395 0.15312004 
0.028909482 0.26574284 0.037487302 
-0.15792918 -0.04200583 -0.044974495 
-0.1643289 -0.39507774 0.15748326 
-0.078108296 0.18784043 -0.059716262 
0.06789094 0.2016767 -0.16815071 
-0.13102588 0.073976524 -0.044925984 
-0.23704979 -0.1227459 -0.019078463 
-0.263497 -0.20022933 0.015780885 
0.07896415 0.3828595 -0.10699564 
-0.05723649 -0.14964029 0.22693454 
0.020002088 0.13876773 0.11561392 
0.040956933 0.23935924 -0.10337984 
-0.24595256 -0.27568668 -0.01163232 
0.009924837 0.2703746 -0.0443267 
-0.019474149 0.13434245 -0.21906082 
0.05510503 0.07316143 0.1781538 
0.10748058 0.3117683 -0.0044353707 
0.16913217 0.39095062 -0.0028198662 
0.06265058 0.29239324 -0.06523728 
-0.11563046 -0.09690248 0.13987386 
-0.08317822 0.10838462 -0.021234132 
0.2398179 0.44594708 -0.009873674 
0.057747513 -0.015297414 0.19568405 
0.06932002 0.31258595 -0.1327925 
0.022601712 0.26626098 0.031723365 
0.096282884 0.20034415 0.033888534 
0.14387368 0.25955868 0.045652505 
-0.05708672 -0.35742638 0.21676207 
0.04990562 -0.09231473 0.24755456 
-0.10922592 0.06705285 0.0683716 
-0.15254661 -0.055929136 0.09703938 
-0.26924396 -0.23538667 -0.0013397551 
-0.103398144 0.037126612 0.05968979 
-0.07767165 -0.0071611754 -0.22318491 
0.18373781 0.4478982 -0.06280417 
-0.10248173 0.07167799 -0.0355328 
0.011751515 0.24682277 0.014916508 
-0.091900565 0.085870005 -0.0394796 
-0.10839926 -0.03020659 -0.28218734 
0.19180405 0.34743935 -0.0737692 
0.072665825 -0.0627544 0.22605452 
0.07019297 0.29474324 0.007820488 
0.19036669 0.32892138 0.046481352 
0.046044175 0.16690129 -0.23034878 
0.038630914 -0.033843096 0.23293369 
-0.032625977 0.14333741 0.01762962 
0.09868156 0.2795006 0.014093612 
0.10466781 0.25742066 0.0048754 
0.07819092 0.22879353 -0.16493231 
0.15219803 0.38091058 -0.1517263 
-0.23310786 -0.22538826 0.018503197 
0.061991565 0.0644139 0.17718884 
0.059012085 0.21092072 -0.19805765 
-0.10926885 -0.04397078 0.06747862 
0.07616641 -0.3150881 0.3010044 
-0.1241666 -0.11561608 -0.26127785 
0.018866064 0.17627051 0.108040065 
0.073403396 0.24351327 -0.11664038 
-0.07688326 -0.2914107 0.21354486 
0.17941028 0.37941462 -0.11247327 
0.00032023442 0.04948968 -0.24666175 
0.08652305 -0.31575397 0.3037571 
0.03967737 0.16893671 0.09963625 
-0.007743785 0.10345935 -0.2018218 
0.021671882 0.007054082 0.23410349 
-0.24364565 -0.2703255 -0.010598601 
0.080969624 -0.27137396 0.30071178 
0.037970934 0.20063584 0.001980867 
-0.05103724 -0.082958706 0.13756377 
0.14931977 0.30301097 0.019565579 
0.022070425 0.19836192 -0.019610139 
0.013187391 0.18641432 -0.19305158 
-0.23797064 -0.3423926 0.016115576 
-0.2733136 -0.25866088 -0.010775434 
0.10010614 0.33903733 -0.09280717 
-0.02708215 0.069639914 -0.21217428 
-0.22055307 -0.068698145 -0.03173787 
0.11521778 0.42615795 -0.13368353 
-0.16752821 -0.3596099 0.15391533 
0.13395889 0.32075736 0.054993834 
0.004473562 0.2538647 -0.02043589 
0.13824391 0.34158945 -0.037373565 
-0.08595368 0.018999567 -0.26534286 
0.07875212 0.20866938 0.09925836 
-0.20166953 -0.027624186 -0.031011298 
-0.035638455 0.011863789 -0.27339116 
-0.06703457 0.07829706 0.09515764 
0.11050673 0.360046 -0.16763836 
0.13137954 0.36909622 -0.11068024 
0.19187437 0.33257428 0.036716793 
-0.2609893 -0.3176904 0.012342782 
-0.06811864 -0.08880959 0.15546262 
0.15337709 0.3209226 -0.07314483 
-0.20721044 -0.042354114 -0.0005181703 
-0.18915282 -0.08011702 0.02942391 
0.1573522 0.32776916 0.035180435 
0.20354326 0.3315777 0.04767834 
0.03220325 0.22077148 -0.022111028 
0.12349734 0.3959263 -0.051296674 
-0.18360747 -0.3087258 0.13160525 
-0.013666626 -0.050012738 0.17981757 
-0.10267618 -0.046723757 -0.24419549 
0.04599968 -0.1668944 0.3008917 
0.08282913 0.18402603 -0.18228774 
0.15546909 0.34104145 0.005656078 
0.08294734 0.2169669 0.026586173 
0.22718588 0.46749458 0.020645805 
-0.09524911 -0.14811602 0.20763905 
0.06156456 0.17738709 -0.12737575 
0.05645537 0.22037564 -0.078776255 
0.20855609 0.41255125 -0.014301049 
-0.04738332 -0.11363072 0.18672925 
0.093974985 0.2064782 -0.10693134 
-0.09973782 -0.046496477 0.08020599 
0.008679381 0.1773348 -0.2081092 
0.089500986 0.406053 -0.1029734 
0.002609685 0.15099168 0.08324544 
0.06492838 0.208602 -0.20086329 
-0.12358862 0.10490643 -0.05200595 
-0.21469718 -0.14114186 -0.008669657 
0.23882817 0.37546408 0.03470124 
-0.03102805 -0.078835234 0.14415334 
0.12370729 0.22166888 0.018399367 
-0.06552018 0.05433874 0.09153324 
-0.15906003 -0.1414218 -0.29566345 
-0.14203976 -0.086252496 0.062416054 
0.038112495 0.1777126 -0.22444905 
0.019284898 0.1586066 0.11302059 
0.13253243 0.27001143 0.03784478 
-0.19597885 -0.29126424 0.15338084 
0.19439176 0.4484829 0.02491303 
0.10683901 0.33124197 -0.033217993 
0.075239725 -0.17372935 0.3088727 
0.13593851 0.3238981 0.04712741 
0.15897343 0.39406836 0.005813042 
-0.13612296 0.03877561 -0.034322254 
-0.11845906 -0.034530435 -0.2731487 
0.12927862 0.22506548 0.10057334 
0.041365918 0.22853537 0.06800971 
0.072396375 -0.27300793 0.29969895 
0.085606866 0.29587018 -0.112763666 
0.1494871 0.2843057 -0.044457693 
-0.1265941 -0.05461743 -0.25002822 
0.1941202 0.3211432 0.04994167 
-0.17594889 -0.048172496 0.02061784 
0.009948892 0.15393744 -0.23141915 
0.20313257 0.4180691 0.050607156 
0.1253568 0.32477298 -0.08971469 
0.077232055 0.3669626 -0.07360828 
0.07303933 -0.057790548 0.21979499 
0.06970239 0.3375062 -0.1318589 
0.15007387 0.38851365 -0.15598838 
0.04051382 -0.095002055 0.26485485 
-0.088933155 0.12126893 -0.017594725 
-0.20730445 -0.066755824 0.00954913 
0.26565218 0.42989886 0.012623842 
-0.1810019 -0.13075349 0.08871263 
0.12207688 0.2469272 0.06435543 
-0.24458903 -0.28852665 -0.0034807627 
-0.16458887 -0.108666845 -0.26188102 
-0.14858878 -0.14690365 -0.26289567 
0.06416233 0.055566646 0.17773247 
-0.09565263 -0.24821283 0.24223278 
-0.2439 -0.22960453 -0.0056886887 
0.054253332 0.20576431 -0.18081824 
0.000130793 0.21940477 -0.014087565 
-0.0013671488 0.22505054 -0.09139494 
0.16366898 0.27430466 0.080470465 
-0.06076464 -0.31753403 0.23328213 
0.13476273 0.3121777 0.025099806 
0.028623441 0.21978289 -0.014634762 
-0.107676186 -0.22287206 0.23611535 
0.21197002 0.2344938 0.029071705 
0.0950583 0.2983069 0.023542067 
0.15652665 0.25620124 0.06787044 
-0.12332503 0.12134457 -0.02716671 
0.16981113 0.37191123 -0.12960643 
0.058218297 0.015773294 0.24252081 
-0.11927435 -0.0977619 0.09150896 
-0.07841794 -0.031305797 0.114191525 
0.13958305 0.30872372 0.016595922 
0.16081923 0.36487585 -0.056140874 
-0.007582391 -0.024320114 0.17762755 
0.12788993 0.37542072 -0.100856334 
0.22583057 0.44976786 0.03223969 
0.045001946 0.28239575 0.009227047 
-0.23879102 -0.21970199 -0.0013307055 
-0.061991546 -0.12962386 0.22444476 
-0.07233004 -0.098295026 0.1636953 
-0.061017558 -0.26472196 0.22988778 
-0.06593784 -0.06680847 0.14778687 
0.20187764 0.42658222 -0.054653816 
0.14642823 0.45239803 -0.12676986 
0.02978856 0.22399521 0.08684392 
-0.21838495 -0.16224092 0.020619817 
-0.19747572 -0.1243416 0.020777268 
0.08763488 -0.19538462 0.2977244 
-0.2036564 -0.27601057 0.15379316 
0.18736692 0.42132455 -0.042277507 
0.11201765 0.21960424 -0.13389057 
0.17468807 0.35158718 0.027697584 
-0.021455718 0.10460638 -0.2551489 
0.24403314 0.45965296 0.021111574 
-0.05191043 0.07082468 -0.21230283 
-0.09616673 -0.010905135 0.13140872 
0.14242642 0.20754023 0.10486006 
-0.041556478 0.064908214 -0.21051969 
-0.089293174 0.04151679 -0.234132 
-0.268446 -0.26680684 -0.023129508 
-0.17787196 0.002857177 -0.047760714 
-0.036433917 0.007651045 -0.23050395 
0.063111626 0.19477043 0.090066254 
-0.24961205 -0.32441688 -0.012998159 
0.07053911 0.18140377 -0.16502626 
0.12528004 0.1995431 0.07718381 
-0.039993484 -0.057321955 0.13919798 
-0.19601804 -0.09424772 0.029899215 
0.16060622 0.32000837 -0.08621379 
-0.061545115 -0.3338409 0.21997947 
0.18363063 0.24751084 0.05645071 
0.055852696 0.22879452 -0.163949 
0.076271094 -0.06406355 0.23159617 
-0.1538422 0.06746161 -0.011896834 
-0.21978296 -0.2855744 0.1188523 
-0.08481357 -0.33049247 0.20765066 
0.07468476 0.1596611 -0.21991079 
-0.11242071 -0.03729989 0.13965483 
-0.0017336863 -0.022410594 0.13501225 
-0.26051834 -0.1666214 -0.002748258 
0.024630072 0.113509886 -0.24984457 
-0.1869233 -0.12804374 0.1309043 
0.18363935 0.38929617 -0.10814481 
-0.17850609 -0.40915382 0.14812876 
-0.046374686 -0.006363994 0.12923804 
0.062804185 0.23173629 0.0328727 
0.12776875 0.3818309 -0.17013235 
0.06615427 -0.071959525 0.27243885 
-0.06723363 0.14387205 0.041601293 
-0.048552565 0.19363093 -0.028981267 
-0.17710209 -0.3341694 0.13726686 
0.12260343 0.26544073 0.013125519 
0.05903405 0.07320094 0.17683913 
-0.042335838 0.0002739908 0.18445015 
-0.18462376 -0.17446141 -0.29679966 
-0.1632835 0.047835607 -0.00279264 
-0.22626416 -0.21573475 0.11109462 
-0.19462465 0.011625967 -0.0136786215 
-0.20372014 -0.34658936 0.1205715 
0.08346992 0.16706449 0.09305152 
0.25893608 0.4045221 0.024597721 
0.27211684 0.4319945 0.011637607 
-0.2006381 -0.08282112 0.027339749 
0.011881106 0.15646881 -0.17914619 
0.058137372 0.030622452 0.23983945 
-0.028703175 0.2196362 -0.105982445 
-0.08893641 -0.00019295361 0.12433849 
-0.110557124 -0.23205641 0.21842515 
0.07868312 0.17607325 -0.11936041 
0.0630332 0.21812792 0.0399697 
-0.2194215 -0.06506137 -0.02949904 
-0.13418597 -0.05449061 -0.2715369 
0.10644151 0.31320778 -0.0041407715 
-0.22518682 -0.08347894 -0.00016000972 
0.089986935 -0.2197554 0.31156376 
0.03358872 0.2346535 -0.14248617 
-0.0822948 -0.049011566 0.10614756 
0.11600687 0.305537 -0.04400192 
-0.1983954 -0.16375414 -0.28164965 
-0.080138214 0.05090388 0.11002223 
0.16174471 0.42775804 0.025650313 
0.18659876 0.3754461 -0.06865855 
0.028411634 0.21630625 -0.054759897 
-0.08057445 0.09585569 -0.028424025 
-0.047655296 0.1948986 0.015257547 
0.1494436 0.38993743 -0.15674612 
0.07498532 0.20152737 0.06567974 
0.026469143 0.017214244 0.19523378 
0.047468044 0.20252454 -0.013136169 
0.22092646 0.40469775 0.03939703 
0.021908127 0.14366803 0.11330646 
-0.067260854 0.057421904 0.09492228 
0.09143233 0.41107383 -0.08693847 
0.1800815 0.46990675 -0.08057092 
-0.1671629 -0.094415925 0.07711433 
0.0051265326 0.09134889 0.13503283 
-0.060800537 -0.12322046 0.18418032 
-0.020646397 0.12190856 -0.20887741 
0.03384303 0.14441 0.090897955 
-0.04516475 0.1785332 0.05354474 
-0.05130666 0.0060482756 0.17420912 
0.05825007 0.21357197 0.09465237 
0.07686559 0.37702325 -0.107342266 
-0.12480052 -0.09915835 0.082881175 
-0.04360956 0.18724161 0.0010245807 
0.009627079 0.24142508 -0.0053668716 
-0.07232481 -0.16311586 0.20763364 
0.19133848 0.46354973 -0.06301114 
-0.20122387 -0.33670363 0.11453306 
0.22091454 0.46037632 0.001990468 
0.14625128 0.37859464 -0.042287342 
0.06192681 -0.28146848 0.3015249 
0.22846912 0.276922 0.037931558 
0.047186542 0.19142237 -0.21863143 
0.119537935 0.29478154 -0.04625013 
0.18929744 0.44782057 -0.0640088 
0.080187514 0.2977836 -0.06467075 
-0.017724065 0.11855684 -0.24408552 
0.04352773 -0.17192309 0.29086033 
0.096571624 0.21560961 0.11656386 
0.029280981 0.028277658 0.19435774 
0.045322057 0.0586339 0.2127868 
0.18995686 0.37748113 0.029227285 
0.008641244 0.21566616 -0.10204918 
-0.017062873 -0.06686431 0.15781388 
-0.034151092 0.19323759 -0.025937023 
-0.061133657 0.12138404 -0.038631264 
-0.024719395 0.19252668 -0.0094085485 
-0.10326756 0.1159811 -0.055890363 
-0.005471686 0.14613974 -0.22557414 
0.035542924 0.23437586 -0.050346866 
-0.048790596 -0.06541968 0.13684857 
0.11357165 0.1875375 0.143359 
0.006447257 0.15066591 -0.23182695 
0.08702446 0.24588692 -0.0828025 
0.17095818 0.3873521 -0.022774275 
-0.07394492 0.18471229 -0.039876793 
0.09031072 0.3402998 -0.06868228 
0.009945994 0.14248943 -0.2382066 
0.016402576 0.17872478 0.106817916 
0.08410704 0.2892257 0.047510598 
-0.14739704 -0.059011936 -0.006615823 
-0.0658828 -0.051319964 0.17101255 
-0.016365774 -0.03830004 0.18599609 
-0.06782564 -0.31818068 0.2448618 
-0.2009541 -0.12653114 -0.007466949 
-0.16454133 -0.1701286 -0.2741717 
0.034417838 0.1788151 0.10487616 
0.06960571 0.3039819 -0.060382295 
-0.072152734 -0.33743364 0.23861444 
0.013550312 0.10772255 0.11884907 
-0.005656665 0.085829936 -0.26560363 
-0.2383404 -0.31275746 0.014834073 
0.020978782 0.25415388 0.039127953 
0.09185715 -0.031056624 0.24941328 
0.15105313 0.2653318 0.034843687 
0.069514476 -0.1918135 0.28646606 
-0.09439834 0.040624507 -0.25981316 
0.12969166 0.43603742 -0.14146794 
0.2745269 0.42688572 0.016455363 
-0.18823203 -0.2401047 0.13690141 
0.18292794 0.2526044 0.055556603 
0.12530287 0.17422149 0.14146847 
0.18606657 0.33082968 -0.07419772 
0.009027861 0.25465745 -0.04147858 
0.14233959 0.2799352 0.024579152 
0.047657587 -0.09309948 0.2479118 
0.071149044 0.35456064 -0.10572535 
0.13177133 0.36123455 -0.14082913 
0.18995042 0.36711618 -0.081212886 
0.07959992 0.27764726 0.024500234 
-0.036225453 -0.057471458 0.14068845 
0.10955834 0.3949355 -0.09086428 
-0.19632657 -0.1865338 -0.30177262 
0.18619536 0.2528165 0.026032919 
0.003838417 0.26061255 0.004941846 
-0.03888145 0.21903986 0.012736976 
-0.15950187 -0.39168477 0.14805768 
0.013333365 0.27230677 0.0020001268 
-0.014040868 0.1607432 -0.05287805 
-0.011379623 0.10158607 0.106714785 
-0.25846797 -0.3410354 -0.0041518942 
0.036050986 0.20503451 0.043088924 
0.066942446 0.23231506 -0.10307441 
-0.06624487 0.066623636 0.094729654 
0.013694014 0.15694012 0.11549439 
-0.16339159 -0.07874042 -0.007574874 
0.15297449 0.31690302 0.0605534 
-0.18695341 0.011224571 -0.03724286 
-0.008825056 0.26317617 -0.08859777 
0.08907573 0.20554307 0.04097599 
-0.17482686 0.042485356 -0.027209435 
-0.060761172 -0.14923102 0.22962488 
0.0060651205 0.14127852 0.08581175 
-0.10668271 0.114946686 -0.0118713165 
0.049199544 0.19333956 -0.21831404 
0.049534533 0.30045006 -0.0723959 
-0.048171572 0.031718645 0.14766613 
-0.072531246 0.1494977 -0.068716966 
0.13567376 0.4557803 -0.084043875 
0.03909807 -0.1099024 0.26564375 
-0.10731474 -0.21702336 0.23334548 
0.16358799 0.28228396 0.035044607 
0.08691661 0.048923984 0.2089163 
0.19184694 0.3727373 0.05652418 
0.05972184 -0.15954086 0.30842414 
0.04771614 0.2723731 -0.04193745 
0.04503818 0.22245821 0.019747734 
0.07482875 0.37592593 -0.075463094 
-0.2082282 -0.03378847 -0.0014358745 
-0.13183941 -0.10248523 -0.25749987 
-0.106727846 -0.056069583 0.13114874 
-0.03363025 0.21704091 0.026048042 
0.07983083 -0.0066165426 0.2356439 
-0.008613297 0.0576651 0.12115755 
-0.11315819 0.042883098 0.06299098 
-0.18324268 -0.34049955 0.12816669 
0.14859769 0.41939694 -0.16347516 
0.06295117 0.05111775 0.17827418 
0.079762585 0.3518383 -0.1461876 
-0.064617306 -0.30921328 0.23680483 
0.0960342 0.10787553 0.18630788 
-0.18672828 -0.04908604 0.023613766 
0.17012092 0.27757928 0.053497717 
-0.2055718 -0.18298714 -0.29984573 
0.16096786 0.3227831 -0.034869082 
-0.012582451 0.017810145 -0.24957025 
-0.088300124 -0.053909533 0.098945364 
-0.09014408 0.0963853 -0.019451516 
0.050447077 0.19513449 0.033773206 
0.11724552 0.308889 -0.07223282 
0.08852855 0.13931046 0.17042948 
0.029241547 0.28072366 -0.0020867987 
0.07584999 -0.06948519 0.25093696 
-0.066445544 0.06486836 -0.2646892 
0.13045251 0.2749175 0.018014982 
0.17094928 0.34129766 0.022529783 
-0.11143211 -0.002857716 -0.25436243 
0.22951491 0.4363388 0.042202972 
0.16050796 0.3290073 0.01493746 
0.24300684 0.40137306 -0.00086024456 
-0.078952834 0.07611341 0.05174351 
0.13623859 0.37539044 -0.077205546 
0.07868408 0.31419083 -0.0269068 
-0.20910123 -0.26549813 0.1521958 
-0.017854843 -0.007909917 0.12300351 
0.12768988 0.28395793 0.02075407 
