-0.21891876 -0.06769036 0.14694443 
-0.48029423 -0.13541666 -0.04564637 
0.41959488 0.04000341 0.14694443 
-0.5 -0.062421836 0.12877366 
-0.020009575 -0.04401149 -0.04775812 
-0.381916 0.061452437 0.06668376 
0.13581546 0.02542552 0.027589943 
0.4264831 -0.13541666 -0.011774718 
-0.4760678 -0.13541666 0.058319505 
0.08122438 0.09286412 0.14694443 
-0.26596478 0.10502868 0.14694443 
0.25654888 -0.056673005 -0.061497476 
0.49839976 0.016702946 0.018124832 
0.2585874 -0.13541666 -0.04463396 
-0.48702094 0.10478217 0.11370209 
-0.0016034723 -0.13541666 -0.015732355 
0.23874463 -0.13541666 0.13352238 
-0.031820375 0.06254508 0.06786943 
-0.33079743 -0.033112936 -0.035931785 
-0.30797118 -0.11992385 -0.13013276 
-0.3925888 -0.13541666 0.14603487 
-0.3293826 -0.13541666 0.03911128 
-0.38859394 0.098156445 0.14694443 
-0.36589172 0.06135966 0.14694443 
-0.4554013 0.036187626 0.039268203 
-0.47559834 -0.11839053 -0.1284689 
0.37453172 0.064740874 0.07025214 
-0.30209517 -0.13541666 -0.12351318 
0.05430704 0.07014605 0.07611744 
0.23896341 -0.13541666 0.056692693 
-0.22147386 -0.04709691 0.14694443 
0.39264458 -0.13541666 0.06346522 
0.077027604 -0.071427554 0.14694443 
-0.14145383 0.1338723 0.14526859 
0.41161382 -0.033213604 0.14694443 
0.46501613 -0.13541666 -0.06345397 
0.47488362 0.09818001 0.10653788 
-0.41925538 0.069903724 0.14694443 
-0.16376957 -0.13541666 -0.023911402 
-0.17550233 -0.019614385 0.14694443 
0.13527031 0.055319235 0.060028456 
0.058529053 -0.065622725 0.14694443 
0.14203265 -0.13541666 0.009724448 
-0.076336145 0.051515855 0.055901296 
0.09957418 -0.09097465 0.14694443 
0.4902212 -0.13541666 0.021943849 
-0.38481265 -0.13541666 -0.12941787 
0.0538843 0.052881658 0.14694443 
0.35236531 -0.12511945 0.14694443 
0.3203121 -0.11835385 0.14694443 
0.45489904 0.014181553 0.14694443 
-0.25449553 0.045925606 0.04983516 
-0.15847363 0.025638444 0.027820995 
0.03672837 -0.041374817 0.14694443 
0.0054706642 -0.07559628 -0.08203166 
0.23843607 -0.13541666 -0.052666754 
0.15787043 -0.07826322 -0.08492564 
-0.030551668 -0.061092824 0.14694443 
0.36711127 0.05388969 0.05847721 
0.21233284 0.0874892 0.094937004 
0.013941418 -0.0572363 -0.062108733 
0.23229928 -0.07936291 -0.08611892 
-0.11499122 0.10480021 0.11372166 
0.48110124 -0.1298644 -0.1409195 
0.0209818 0.028984644 0.03145205 
-0.054935046 -0.035559334 -0.038586445 
-0.16556779 -0.061434977 -0.06666484 
0.26733336 -0.13541666 -0.07664509 
-0.3099154 -0.13541666 0.13704397 
0.045791764 -0.13541666 0.09102137 
0.06407205 -0.13541666 -0.050379574 
-0.24213418 0.12042511 0.14694443 
-0.18399508 -0.12135035 -0.1316807 
-0.29733524 -0.087847 -0.095325254 
0.33706596 -0.13541666 -0.0909982 
0.5 -0.11073265 -0.024679365 
0.24041206 -0.09405238 0.14694443 
0.5 0.00934513 0.09447155 
-0.045321397 0.012972518 0.014076839 
0.5 -0.003207548 0.054648023 
-0.22870374 0.0057506603 0.14694443 
-0.4364857 -0.050320704 0.14694443 
-0.05138005 0.06906863 0.14694443 
-0.100827925 -0.063506626 -0.06891284 
0.08967164 0.12084751 0.13113503 
0.11677792 -0.040276624 -0.043705307 
-0.09093754 -0.11362828 0.14694443 
0.30678308 -0.07547717 -0.08190241 
0.25908735 0.06316674 0.06854401 
-0.25867504 -0.036754508 -0.039883368 
-0.39896458 -0.08259954 -0.0896311 
0.017490221 -0.13541666 -0.10996534 
-0.46186206 0.024543755 0.026633112 
-0.35935134 -0.087523565 -0.094974294 
-0.088652186 -0.13541666 0.0079298075 
-0.2819283 -0.0063749184 0.14694443 
0.49801937 -0.098098695 -0.10644968 
-0.24151146 0.08844837 0.09597782 
0.3103526 0.12616444 0.13690458 
0.41658053 0.05214844 0.056587733 
-0.46696526 0.022052433 0.02392971 
-0.26004687 -0.08125757 0.14694443 
-0.23602861 0.05359484 0.058157265 
0.3953915 0.12402981 0.13458824 
-0.030176856 0.0059004105 0.006402692 
-0.18276216 -0.056069616 0.14694443 
-0.1810042 -0.079291195 -0.086041115 
0.2847326 -0.13541666 -0.04865226 
0.18805309 0.044557635 0.14694443 
0.45456767 -0.0529987 -0.0575104 
0.24875277 0.07196702 0.14694443 
0.3869808 0.108912446 0.11818395 
-0.5 -0.11970399 -0.03457488 
-0.40267602 -0.027150536 0.14694443 
-0.39755216 -0.13541666 -0.049156662 
-0.20194036 0.109927066 0.14694443 
-0.29164174 -0.06651368 0.14694443 
0.0071401834 0.024004148 0.026047576 
0.23484258 0.12370172 0.13423224 
0.17641395 -0.13541666 -0.10705971 
-0.15265563 0.031988624 0.14694443 
-0.12809928 0.0483809 0.052499473 
-0.35594228 -0.045557577 -0.04943583 
0.13050583 0.12333943 0.14694443 
-0.3626126 0.061961316 0.06723597 
0.07708488 -0.01139063 -0.012360306 
-0.007281129 -0.13541666 -0.11191741 
0.20426704 0.088283986 0.09579944 
-0.265759 -0.13541666 -0.12160117 
0.19054757 0.05539113 0.060106467 
-0.29261932 0.02939368 0.0318959 
0.40341845 -0.10596959 0.14694443 
-0.07558515 0.022097494 0.023978602 
0.21886078 -0.13541666 -0.0139659885 
0.40333498 -0.1348112 -0.14628743 
-0.39112312 -0.026373286 -0.028618407 
0.033895288 -0.13541666 0.024767833 
0.164828 -0.023299014 -0.025282424 
-0.43234968 -0.071710855 -0.07781549 
0.40489665 0.0812873 0.14694443 
0.41046157 0.055918947 0.060679223 
-0.083843485 -0.13541666 0.06300759 
0.4727392 0.053937115 0.14694443 
-0.1532906 0.016468715 0.01787067 
0.4300026 -0.015911005 0.14694443 
0.18231924 -0.006475392 -0.00702664 
0.21565287 -0.13541666 -0.03072105 
0.17397864 -0.13099869 -0.14215039 
0.3016932 -0.10765686 0.14694443 
-0.2022178 0.12382852 0.1343698 
0.008337622 0.007152002 0.007760828 
-0.33081913 -0.11461601 -0.12437308 
0.37482315 -0.13541666 -0.14159721 
-0.46634176 0.13170591 0.14694443 
-0.23464118 0.09599589 0.14694443 
0.2129501 0.0438685 0.14694443 
-0.010666416 0.05162164 0.056016073 
-0.09005037 0.059890583 0.06498896 
-0.1034135 -0.12761648 -0.13848025 
0.40721825 -0.13541666 0.032575756 
0.43939742 0.07628886 0.08278318 
0.43384704 0.13313098 0.14446418 
0.43734354 0.066267684 0.07190892 
-0.42429942 0.0017462657 0.14694443 
-0.063589506 0.12655696 0.14694443 
-0.21095577 0.07512166 0.14694443 
0.29735354 -0.10568249 -0.11467906 
-0.024013117 0.10305843 0.111831605 
0.051302843 0.028766016 0.031214805 
-0.39668018 -0.044678587 -0.048482005 
0.2576209 0.09924418 0.10769265 
-0.481502 -0.13541666 -0.12709697 
-0.29090485 -0.0355279 -0.03855234 
-0.45350197 -0.07415923 -0.080472276 
-0.1925573 -0.13541666 -0.010444874 
-0.39441976 -0.1217055 0.14694443 
-0.33123726 -0.04947634 -0.05368818 
-0.47553447 -0.013694342 -0.014860126 
-0.5 -0.0638363 0.040114813 
0.33825564 0.07671992 0.14694443 
0.15294175 -0.092594184 0.14694443 
-0.2846143 -0.038277242 0.14694443 
0.30041644 0.04063958 0.044099137 
0.10467892 0.084055744 0.091211244 
0.14084148 0.11037361 0.119769506 
-0.5 0.06619753 0.12671277 
0.13935912 -0.04410782 -0.047862638 
0.05349373 0.032696582 0.035479978 
-0.16510779 -0.11906225 0.14694443 
0.5 0.011431893 0.12470447 
-0.4328922 -0.073702745 -0.07997694 
0.12233053 -0.035287563 -0.03829154 
0.060491387 -0.13541666 0.09967445 
0.20887735 0.07249751 0.078669086 
0.30503467 -0.13541666 -0.11851855 
-0.46295002 -0.13541666 -0.13047555 
0.15032148 0.062181197 0.14694443 
0.124759726 0.026898138 0.029187927 
0.39205018 -0.12520826 -0.13586701 
0.17167675 0.12851967 0.14694443 
0.13853614 -0.07301477 0.14694443 
-0.20796384 0.09843312 0.10681255 
0.1669987 -0.13541666 0.035345856 
0.47743458 -0.13541666 -0.07251248 
0.16734867 -0.13541666 0.074194744 
-0.04971816 0.044541903 0.14694443 
-0.17778525 0.039647803 0.04302295 
0.4836462 0.056595955 0.14694443 
-0.4127321 -0.13541666 -0.020293238 
-0.4789396 0.07953905 0.08631007 
-0.4544808 -0.05308575 -0.057604864 
0.39382336 -0.13541666 -0.047562025 
0.3737233 -0.13541666 0.0967694 
0.37931666 -0.13541666 0.12381414 
0.16010495 -0.13541666 -0.1156447 
0.47952637 -0.035587784 0.14694443 
0.053093527 -0.1109922 0.14694443 
-0.2405001 0.07128983 0.077358596 
-0.44023958 -0.07230486 -0.07846005 
0.4287303 0.12335698 0.13385814 
0.079566784 0.026401525 0.14694443 
0.410261 -0.13541666 0.14463252 
0.5 -0.093721665 0.044222385 
0.16174787 0.115050316 0.14694443 
-0.46302384 -0.13541666 -0.07987912 
0.5 -0.06384918 0.020367129 
-0.037394132 -0.13541666 -0.11099653 
0.23188585 -0.05247186 0.14694443 
-0.1429923 0.005233131 0.0056786123 
0.18641384 0.10921837 0.11851592 
-0.26184702 0.03998572 0.14694443 
0.24574785 -0.13541666 -0.034065504 
0.12544063 -0.072877765 0.14694443 
0.35052493 0.06620687 0.07184294 
-0.23291653 0.037970316 0.04120266 
-0.38128108 -0.13541666 0.018379241 
-0.121803604 0.008888538 0.14694443 
0.36260957 -0.13541666 0.12705582 
-0.4740277 0.039446168 0.14694443 
-0.34171376 -0.08966876 0.14694443 
0.017268253 -0.078811474 -0.085520566 
-0.21585992 0.041157424 0.04466107 
0.14718156 -0.10925502 0.14694443 
-0.49225307 -0.0269912 0.14694443 
0.15032418 0.043985713 0.14694443 
-0.3149475 -0.05187184 0.14694443 
0.1905823 0.043515276 0.04721965 
-0.5 0.01669647 0.1034981 
-0.16154662 -0.003103546 0.14694443 
0.047562644 -0.13541666 0.06760387 
0.30802366 -0.13541666 -0.085990004 
0.49873257 -0.13541666 -0.11152451 
0.24970417 -0.049749617 -0.053984713 
-0.22011288 -0.10841703 -0.117646374 
-0.09390062 -0.13541666 0.027805805 
-0.060530692 0.05399962 0.058596503 
0.18777369 0.06889829 0.14694443 
0.1314489 0.08824327 0.09575526 
0.05035733 -0.0036224304 -0.0039308113 
0.24021359 -0.11234708 -0.12191099 
-0.2180868 -0.020231053 0.14694443 
0.49608174 0.057067856 0.06192594 
0.5 -0.062391035 0.0048724264 
0.06553673 0.12975952 0.14694443 
-0.31086126 -0.044497073 0.14694443 
0.09369071 -0.13541666 -0.04776219 
-0.20837396 0.078766145 0.14694443 
-0.15183817 -0.13541666 -0.044651188 
0.2076162 -0.03581867 -0.038867857 
-0.34499195 0.113158725 0.14694443 
-0.13207673 0.054066647 0.14694443 
0.33565462 0.09922012 0.10766655 
0.22019145 0.066616215 0.07228712 
-0.08137823 -0.13541666 -0.07338493 
-0.1786405 0.030602826 0.03320798 
0.36641628 -0.025964603 0.14694443 
-0.23558529 0.11951314 0.14694443 
0.35367763 -0.0031082267 -0.0033728261 
-0.34419686 -0.13541666 -0.024601795 
-0.091402166 -0.07407144 0.14694443 
0.38724616 -0.13541666 0.03913102 
0.0593903 -0.014425036 0.14694443 
0.13019074 -0.020992488 -0.022779543 
-0.31481123 0.059074722 0.06410365 
0.16345827 0.056247625 0.14694443 
-0.08367275 -0.13541666 -0.015106275 
-0.19036439 -0.0037281462 0.14694443 
-0.059049256 0.035872735 0.14694443 
0.19647025 0.13475387 0.14622521 
0.14591154 0.10894404 0.14694443 
0.26806015 -0.13541666 -0.062456544 
-0.5 -0.06259268 -0.06761817 
0.37093526 -0.13541666 -0.10037979 
0.29372805 -0.100734666 -0.109310046 
0.074475475 0.00011282458 0.00012242181 
-0.4432006 -0.13541666 -0.12156455 
-0.35556147 0.08260159 0.08963331 
0.5 -0.011544963 0.03672649 
0.31372982 -0.094155855 -0.102171175 
-0.21119687 0.07305625 0.07927539 
-0.27573353 -0.017602209 0.14694443 
0.4909115 -0.11079532 -0.120227136 
0.2899404 -0.13541666 0.08866133 
-0.35989732 -0.053274136 0.14694443 
0.41903493 0.0069875703 0.0075824033 
-0.40020102 -0.09296673 -0.10088082 
0.095554866 -0.13541666 0.042260613 
0.19001187 -0.10358722 -0.11240541 
-0.30664837 -0.058698144 -0.06369502 
-0.2352805 -0.13541666 -0.051247172 
-0.2241596 -0.13541666 -0.013577375 
-0.5 0.11468961 0.13073312 
-0.5 -0.07298504 0.13594751 
0.41146275 -0.09323233 -0.10116904 
-0.08741112 0.086364105 0.09371612 
0.20731992 -0.13541666 0.12783097 
-0.27660555 -0.13541666 -0.08600885 
-0.2234263 0.114483155 0.124228895 
-0.1766192 -0.13541666 -0.028257359 
-0.02349737 -0.058024164 -0.062963665 
-0.23460558 -0.13541666 -0.017788446 
0.46567157 -0.13541666 -0.06531562 
-0.3989722 -0.017889464 -0.01941236 
-0.33709145 0.05642772 0.06123131 
0.17063981 0.10564462 0.11463795 
-0.44047788 -0.13541666 -0.013525122 
0.4484049 0.083489925 0.14694443 
-0.010509507 0.049761266 0.14694443 
-0.101232305 -0.06879233 0.14694443 
-0.0006851566 -0.13541666 -0.07340304 
0.16644616 -0.05662735 0.14694443 
-0.45789355 -0.032214973 -0.034957383 
-0.3391826 0.037085187 0.040242173 
0.34847277 -0.13541666 0.09580223 
0.23920177 0.094593115 0.14694443 
-0.06361815 -0.13541666 -0.121903606 
-0.20777936 -0.11922877 -0.1293785 
-0.24103352 -0.102160096 -0.11085681 
0.22542882 -0.13541666 -0.085031494 
0.3578292 -0.04618454 0.14694443 
0.042678747 -0.08738121 0.14694443 
0.37939978 -0.09889751 -0.10731648 
-0.5 0.026967902 0.041992538 
0.019490404 0.08225138 0.089253284 
0.1948248 -0.13541666 0.11972125 
0.09173645 -0.051341657 -0.055712294 
-0.2786137 -0.13541666 -0.10749974 
0.013002381 0.072239004 0.14694443 
0.17103954 -0.08709285 -0.09450691 
-0.24612191 -0.103307605 -0.112102 
-0.33822647 0.071436934 0.14694443 
0.46957225 -0.13541666 0.07650395 
-0.07620705 -0.13541666 0.11742283 
0.5 0.045554332 0.11986322 
-0.038712796 0.054534554 0.05917697 
-0.38084176 -0.13541666 -0.12996583 
-0.5 0.034705102 0.08198398 
0.5 0.11041419 0.12671444 
0.1661178 -0.13541666 -0.060313422 
0.26560763 -0.13541666 0.06722892 
0.35987285 -0.06378445 -0.06921432 
-0.16747224 -0.13541666 -0.014365218 
-0.32875147 -0.07399654 -0.08029574 
-0.5 -0.029884715 0.064899474 
-0.1713275 -0.004441999 0.14694443 
-0.46627876 0.0012299495 0.001334648 
0.08369937 0.0054678423 0.14694443 
-0.480106 0.09319959 0.101133496 
-0.10890689 0.03782742 0.14694443 
-0.029963102 -0.13541666 -0.093922324 
0.17238395 -0.01800073 -0.019533105 
0.4761595 -0.13541666 -0.12001076 
-0.42384642 -0.13541666 0.117840216 
0.04983926 -0.096260935 -0.10445547 
-0.21372251 0.009597293 0.010414288 
0.07183577 0.11684537 0.12679219 
-0.5 -0.09765822 0.12524372 
-0.3240536 -0.03359072 0.14694443 
0.31790453 -0.13541666 -0.04044149 
-0.4775088 -0.13541666 -0.114106454 
-0.1334917 0.1324283 0.14694443 
0.35707024 0.13128054 0.14245622 
-0.40613216 -0.089184865 0.14694443 
0.3983405 -0.061264094 -0.0664794 
-0.1611152 0.010576798 0.011477178 
0.36251765 -0.13541666 -0.09642698 
-0.16332623 -0.00013371492 0.14694443 
0.26742017 0.104735896 0.14694443 
0.1355876 -0.13541666 -0.118620336 
0.0245257 -0.018109852 -0.019651512 
0.25685644 -0.13541666 -0.07692479 
-0.066629976 -0.13541666 -0.050841697 
-0.1972832 -0.044086456 0.14694443 
-0.3357352 -0.035474498 -0.038494386 
-0.40988743 -0.13541666 0.034684163 
-0.4617061 -0.13541666 0.14490966 
0.15166934 0.017325358 0.14694443 
0.09957369 -0.0776226 0.14694443 
0.5 -0.08688208 0.1000758 
-0.3613767 0.016848356 0.018282615 
0.37957048 -0.13541666 -0.054733913 
0.05801274 -0.09181952 -0.09963596 
0.46335545 -0.13541666 0.101466365 
-0.085296705 -0.13541666 0.07760903 
0.5 -0.06445748 0.020660624 
0.18462676 -0.13541666 0.07364954 
0.015674617 -0.09313263 0.14694443 
-0.16331504 -0.031474587 -0.034153968 
0.42249095 -0.030828971 -0.033453394 
0.24470803 -0.13541666 -0.022738107 
0.19261356 -0.13541666 0.0879107 
-0.34025654 0.12916432 0.14015985 
0.34463847 -0.13541666 -0.025467126 
0.21696433 -0.13541666 0.01926526 
0.16249895 -0.08522211 -0.09247692 
0.3531214 -0.0102575375 -0.011130746 
0.4987112 0.0106716715 0.14694443 
-0.44807532 0.06803763 0.07382954 
-0.03590733 0.12008517 0.14694443 
-0.056939553 -0.13541666 0.10859145 
0.010841573 0.048903592 0.053066663 
0.15007293 -0.13541666 -0.03373792 
0.40894654 -0.13151954 -0.14271557 
0.40209976 0.018181028 0.019728743 
-0.40420875 0.083664194 0.14694443 
0.5 -0.03941769 0.07546941 
0.45131013 -0.03313247 -0.03595299 
-0.31053 0.039773263 0.04315909 
0.48128325 0.10694927 0.14694443 
-0.11524851 -0.041362513 -0.04488364 
-0.19765596 -0.044489693 -0.048277028 
0.5 -0.05713942 0.03094612 
-0.31046966 -0.063240625 0.14694443 
0.2726189 0.08771288 0.14694443 
0.5 0.008568707 0.032725133 
-0.07566489 -0.10666709 0.14694443 
0.0869766 -0.10496079 -0.11389592 
0.5 -0.06885871 0.1337949 
0.45482484 -0.022386298 -0.024292016 
0.31638372 0.043963898 0.14694443 
-0.06814909 -0.12681301 -0.1376084 
0.05822451 0.12545066 0.14694443 
0.06809264 -0.13541666 -0.06521055 
-0.27556062 -0.13541666 0.023110928 
0.19094913 -0.089643665 -0.09727488 
0.04424955 0.0765519 0.0830686 
0.0424115 -0.08385747 -0.09099612 
-0.011338153 0.10771997 0.116889976 
0.39378628 -0.13541666 0.12344752 
0.47360903 0.085253075 0.14694443 
-0.32414922 -0.12291004 -0.13337317 
-0.1202434 0.12619513 0.14694443 
-0.0040713707 0.011664035 0.012656966 
0.063653864 -0.061382778 -0.0666082 
-0.028598309 -0.13541666 -0.07803524 
-0.5 -0.024798255 0.005614209 
-0.5 -0.050003286 0.04357375 
0.4858489 -0.13541666 0.14531726 
-0.23281689 0.06796161 0.073747054 
-0.4305394 -0.13541666 0.029141739 
-0.5 -0.041563228 0.005405616 
0.5 -0.11246281 0.037355386 
-0.19370583 0.09144887 0.09923373 
0.2687902 -0.13471 -0.14617762 
0.117786065 -0.023983877 0.14694443 
-0.36309567 -0.10542989 0.14694443 
-0.20024635 0.04996183 0.14694443 
-0.3092496 -0.13541666 0.08722292 
-0.063740514 0.030933354 0.03356665 
0.084627874 0.08544623 0.092720106 
-0.2099078 -0.13541666 -0.036926456 
-0.108674 -0.13541666 -0.020443337 
0.4472123 -0.13541666 0.08554161 
0.40090626 -0.13541666 -0.10663758 
0.5 -0.0355092 0.009007458 
0.5 0.023117116 0.08041884 
-0.3476417 0.0105174575 0.14694443 
-0.2700799 -0.064764075 0.14694443 
0.5 -0.11242408 0.09363466 
-0.16178657 0.12644848 0.14694443 
-0.31659797 -0.13541666 -0.017515289 
0.27739686 0.026566448 0.14694443 
-0.22241834 -0.13541666 -0.09644278 
-0.1696638 -0.10906122 -0.1183454 
-0.22814088 -0.0845159 0.14694443 
-0.4295879 -0.010252347 -0.011125117 
0.06620431 -0.111629404 -0.12113222 
0.3614429 -0.13541666 0.12996453 
0.048637595 -0.048399072 -0.052519206 
-0.4992513 -0.12651995 -0.13729037 
-0.32127562 0.06865998 0.07450488 
-0.38054633 -0.13541666 -0.0074373414 
-0.3362592 -0.13541666 0.118828855 
-0.036073547 -0.04929708 0.14694443 
-0.32379043 -0.13541666 -0.0683087 
0.36969054 0.00513796 0.0055753435 
0.5 -0.08852786 -0.0069313655 
-0.045246046 -0.13541666 -0.040984336 
-0.33314788 0.10651773 0.11558537 
-0.35898513 -0.11515973 0.14694443 
0.48001826 -0.13541666 0.058317386 
-0.30485785 -0.072245695 0.14694443 
0.29110864 -0.13541666 0.11029488 
-0.12263069 -0.13541666 -0.1449483 
0.23439696 -0.037471123 0.14694443 
-0.07922427 0.09839328 0.1067693 
0.25628504 -0.1197182 -0.1299096 
0.19518583 0.09797265 0.14694443 
0.45022452 -0.13541666 0.122302994 
0.20877385 0.078788966 0.085496135 
-0.33272082 -0.017427351 -0.018910926 
-0.3309433 0.1081697 0.117377974 
0.055861495 -0.10976778 -0.11911212 
-0.31258497 -0.042733386 -0.046371207 
-0.37479928 -0.13541666 -0.03704558 
-0.31019562 0.022850808 0.024796046 
-0.49158123 -0.13541666 0.090584986 
0.43689176 -0.061679423 0.14694443 
-0.49391323 -0.13541666 -0.069323376 
0.24589863 -0.13541666 -0.12896135 
-0.4017853 -0.13541666 0.09938541 
-0.04412032 -0.10331516 -0.1121102 
-0.073022604 -0.09102395 0.14694443 
0.30630904 0.08285438 0.14694443 
-0.40017545 -0.13541666 0.0701751 
-0.46471798 -0.05155437 0.14694443 
-0.31221616 -0.13541666 0.12551984 
0.39969158 -0.13541666 -0.08926571 
-0.010889086 0.11146408 0.12095281 
0.46518943 -0.11394973 0.14694443 
0.37861264 0.051714096 0.14694443 
-0.37320182 -0.018697804 -0.020289524 
-0.35908708 -0.09606785 -0.104245946 
-0.40903127 -0.04079447 0.14694443 
0.011526866 0.081854545 0.14694443 
0.014785269 -0.13541666 -0.023401814 
0.031808782 -0.13541666 -0.046346292 
-0.07094914 0.13521238 0.14672276 
-0.30106658 0.043495774 0.14694443 
-0.34500855 -0.13541666 0.019175949 
-0.024730194 -0.13541666 0.04083297 
0.017544976 -0.09366913 0.14694443 
-0.10353235 -0.05925081 -0.06429472 
0.21150917 -0.13541666 -0.10949827 
0.22678372 -0.13541666 -0.14422014 
-0.14762591 -0.009270077 0.14694443 
0.28931275 -0.13541666 0.03417142 
-0.36055174 -0.03842937 -0.04170081 
-0.41532272 0.109627 0.14694443 
-0.26268876 -0.13512836 -0.1466316 
0.016897842 0.020518517 0.14694443 
0.5 -0.041792735 0.009860757 
0.46546653 0.05372432 0.058297772 
-0.40179023 -0.13541666 -0.037701417 
0.33114773 -0.13541666 -0.04955042 
0.1376357 -0.020178884 -0.021896686 
-0.16022316 0.059457384 0.14694443 
-0.256836 0.026233908 0.02846715 
-0.28834745 -0.05027123 -0.054550733 
0.11328737 -0.106945254 -0.11604931 
0.082894914 -0.07641212 -0.082916945 
-0.4234937 -0.13541666 -0.109698586 
0.30888999 0.12108922 0.14694443 
-0.20030998 0.09342927 0.14694443 
-0.2986487 -0.068849295 -0.07471032 
-0.10498874 0.0196043 0.021273164 
0.5 -0.12069877 0.00455155 
-0.40283588 -0.13541666 -0.10692759 
-0.2919802 -0.11645455 -0.12636812 
-0.19554172 -0.13541666 -0.022032766 
0.100449696 0.043659907 0.0473766 
-0.5 0.046593737 0.095766015 
0.4452289 -0.12289874 -0.13336089 
-0.008557426 0.0974962 0.14694443 
0.43706593 0.08542996 0.14694443 
0.08118736 -0.13541666 0.08654051 
0.5 -0.03418405 0.02267212 
-0.36115196 -0.13541666 -0.042093646 
0.018353492 -0.13541666 0.06849469 
-0.3391194 -0.13541666 0.13432354 
0.4899884 -0.03348791 0.14694443 
0.30082032 -0.13541666 0.026232986 
-0.4398664 -0.13541666 0.045679826 
0.035953704 -0.13541666 -0.026282428 
0.24168715 -0.07128358 -0.077351816 
-0.3347625 -0.13541666 0.13264023 
0.0056038443 -0.10492473 -0.1138568 
-0.17441599 -0.13064697 -0.14176872 
-0.07039173 -0.13541666 0.004593323 
-0.20338283 -0.13541666 -0.097959116 
-0.18202627 -0.13541666 0.024440236 
0.05601743 -0.13541666 -0.02148049 
-0.47208494 -0.037508924 -0.040702 
0.44418308 -0.13541666 0.11894863 
-0.39104155 -0.0076832296 0.14694443 
0.016363898 0.11485296 0.124630176 
-0.3560102 -0.13541666 0.11871366 
-0.48423654 -0.13307023 -0.14439827 
-0.17724395 0.04661287 0.05058093 
-0.35291725 -0.08028069 0.14694443 
-0.040968034 0.12767644 0.14694443 
0.17006423 0.015335715 0.14694443 
-0.27167726 0.071063556 0.14694443 
0.46632075 -0.009368464 0.14694443 
0.5 -0.10355358 0.010196908 
-0.21124522 0.06802227 0.14694443 
-0.22947782 -0.11918631 -0.12933244 
-0.24217756 -0.13541666 0.09154637 
0.4146767 -0.0749919 0.14694443 
-0.3326102 -0.13541666 0.0999492 
-0.26204887 0.033882197 0.14694443 
0.050830834 -0.06574152 0.14694443 
-0.4408539 0.1313314 0.14694443 
0.2891007 -0.13541666 0.09065488 
-0.29291356 -0.065989636 -0.07160722 
0.09143199 -0.13541666 0.025714675 
-0.5 -0.05626198 -0.042606086 
0.49857664 0.11464253 0.124401845 
-0.33843982 -0.13541666 -0.114409305 
0.07690807 -0.045512438 -0.049386848 
0.48034558 -0.018598946 0.14694443 
0.3530892 -0.08850113 -0.09603508 
0.45399067 -0.008934381 -0.009694962 
0.5 0.059120566 0.08451573 
0.27605549 0.041546278 0.045083035 
0.34276098 0.018957643 0.14694443 
-0.3263346 0.048560698 0.14694443 
0.12259196 0.012453944 0.14694443 
0.18653372 -0.032419585 0.14694443 
-0.45718613 -0.042767223 -0.046407923 
-0.15458676 -0.104131855 -0.11299642 
0.093647346 -0.13541666 -0.0663328 
0.10984403 -0.13541666 -0.12670854 
0.34710398 0.06099124 0.066183314 
0.11558273 -0.13541666 0.14047909 
0.032273084 -0.10030723 0.14694443 
0.12023426 -0.07503732 0.14694443 
-0.161518 -0.13541666 0.02180066 
-0.1956416 0.107271 0.14694443 
0.4073781 -0.09041735 -0.09811442 
-0.20614585 0.121906206 0.14694443 
0.43896148 -0.13541666 -0.08179411 
0.46856263 0.029606638 0.14694443 
0.1137458 -0.13541666 0.019351322 
-0.5 0.0079029035 0.122831844 
-0.19580495 -0.13541666 -0.03290147 
-0.24096066 -0.13541666 -0.013409685 
-0.14368215 -0.13541666 0.016086355 
-0.15892795 -0.13541666 -0.047717012 
0.4425677 -0.13308795 0.14694443 
0.1896372 -0.13090496 0.14694443 
0.22910707 0.08596834 0.09328667 
-0.05347226 -0.13541666 -0.061773248 
0.05800975 -0.13541666 0.074263364 
0.3458895 -0.13541666 0.057452623 
-0.4863681 -0.088303044 -0.09582012 
-0.24511068 -0.107613504 -0.116774455 
-0.13257417 0.13297671 0.14694443 
-0.29635215 -0.11315731 0.14694443 
-0.25182816 0.0036595294 0.0039710496 
0.40665734 -0.1095919 -0.118921265 
0.5 -0.12803632 -0.015132871 
-0.12286705 -0.13541666 -0.10559787 
-0.5 0.01826932 0.041493997 
0.06573039 -0.13541666 0.08051125 
0.4184601 -0.13541666 -0.06801229 
0.4313221 0.093459256 0.101415254 
-0.11786648 -0.010829563 0.14694443 
0.3668042 -0.13541666 -0.015029868 
-0.34951293 -0.09971696 -0.10820569 
0.3726797 -0.13541666 -0.10256653 
0.02756936 0.1292657 0.14026983 
0.025881134 -0.079400346 0.14694443 
-0.4522682 -0.101647355 -0.110300414 
0.19478269 0.12797764 0.14694443 
-0.055192478 0.0031305442 0.14694443 
0.46703914 -0.10569725 -0.11469508 
0.47064352 0.060238343 0.14694443 
-0.117385924 -0.066483445 -0.07214306 
-0.37814242 0.02025528 0.021979569 
-0.13688546 -0.13541666 0.12963259 
0.3946858 -0.13541666 -0.14584824 
-0.14746101 0.021769142 0.14694443 
0.39739457 0.08520379 0.09245703 
0.5 -0.10139709 0.021912852 
-0.06317566 0.0057840063 0.0062763765 
0.32024452 -0.13541666 -0.029933311 
-0.4742974 -0.03581407 0.14694443 
0.23615703 0.10156736 0.110213615 
0.3663468 -0.11774916 -0.12777296 
0.20446908 -0.13541666 -0.08026442 
0.5 -0.07110262 0.004562952 
0.5 0.037185676 0.04399605 
0.48373207 -0.02440621 0.14694443 
-0.0057701613 0.041770287 0.14694443 
-0.08108143 -0.0047325315 -0.00513541 
-0.42847764 -0.048265044 -0.05237376 
-0.24836367 -0.13541666 0.08942425 
-0.39821 -0.13541666 -0.007103388 
0.090329416 -0.09231243 -0.10017082 
-0.026451636 -0.059669454 -0.06474901 
-0.21256964 0.13328429 0.14463054 
-0.5 0.030909413 0.12805735 
0.47677305 -0.13541666 -0.103895985 
-0.11776978 -0.080759056 0.14694443 
-0.37289825 -0.0012451506 -0.0013511546 
0.16338846 -0.13541666 0.13581415 
0.13034324 -0.13541666 0.04698861 
-0.29253897 -0.055756602 0.14694443 
-0.23564743 0.062484775 0.06780398 
-0.12716387 -0.014481232 -0.015713999 
-0.47898725 -0.029884905 0.14694443 
0.35131186 -0.0039410563 -0.0042765564 
0.47921577 -0.06907013 -0.07494996 
-0.13602518 -0.13541666 0.07365239 
-0.11844711 0.10657092 0.115643114 
-0.5 -0.034660798 0.07818511 
0.5 -0.040090326 -0.036886245 
-0.2864058 -0.034211203 -0.037123553 
-0.4851993 0.1333161 0.14466505 
0.16223028 -0.023935584 -0.025973178 
0.26326454 -0.11028073 0.14694443 
-0.104919106 0.09883913 0.14694443 
0.32686642 0.12834668 0.1392726 
-0.07817413 -0.08179594 0.14694443 
-0.5 -0.046661843 -0.031809855 
0.22885635 0.11034916 0.14694443 
-0.45676365 -0.13541666 -0.07892622 
-0.06551201 -0.13541666 0.112273745 
-0.12970945 -0.12625276 0.14694443 
0.5 -0.13036302 0.095024854 
0.0017459816 0.021452393 0.14694443 
0.2845157 0.06693026 0.14694443 
-0.2713756 -0.13541666 -0.025277356 
0.08786086 -0.13541666 0.11441981 
-0.44478786 0.10325857 0.1120488 
0.5 -0.12132787 -0.05225076 
-0.003539345 -0.083350465 -0.090445936 
-0.49165064 -0.13541666 -0.027194636 
-0.37340102 -0.11170346 -0.12121258 
-0.26722136 0.024588438 0.026681606 
0.28469664 -0.031846516 0.14694443 
0.18057972 -0.13541666 -0.06872095 
0.22609404 0.033409018 0.03625307 
-0.12021186 -0.13541666 0.0059227725 
0.09271651 -0.13541666 -0.12863022 
-0.30504137 -0.047190584 -0.05120784 
0.3202945 -0.02727034 0.14694443 
0.36288914 0.06104182 0.14694443 
-0.06285325 0.02498561 0.027112585 
0.3530851 -0.13541666 0.11374156 
0.14013875 0.084049605 0.0912046 
-0.46154818 -0.13541666 0.1395051 
-0.38825247 -0.13437642 -0.14581564 
0.32856506 0.109699406 0.119037904 
0.5 -0.04330305 -0.010632807 
0.0597651 0.05071261 0.055029683 
-0.48454034 0.022106066 0.023987915 
0.23952588 0.061084684 0.14694443 
0.3530399 -0.13541666 -0.0880629 
0.4920552 0.04839625 0.05251614 
0.06309051 -0.13541666 -0.036122058 
0.113185525 0.04491235 0.04873566 
-0.049125608 -0.13541666 -0.005870032 
-0.0878583 -0.13541666 0.07565095 
0.21063584 -0.1321673 -0.14341848 
0.046706706 -0.08223896 -0.08923982 
0.42520246 0.11795168 0.14694443 
0.49775302 -0.059354268 0.14694443 
-0.4286749 -0.034108017 0.14694443 
0.112823255 -0.061646324 -0.06689417 
0.4434008 -0.13541666 -0.08821652 
0.31150672 0.0031579675 0.0034267914 
-0.5 -0.08025852 0.09112482 
-0.3969752 0.06707103 0.14694443 
-0.14066099 0.054940015 0.14694443 
0.041058976 0.12267716 0.13312045 
-0.41264626 0.11671158 0.12664703 
-0.46866578 -0.025159592 0.14694443 
-0.4427866 -0.0020326013 0.14694443 
-0.08506525 -0.13541666 -0.13956247 
-0.44164714 0.08038551 0.08722858 
-0.0128817335 0.057716865 0.06263019 
-0.04380065 -0.10655421 -0.11562499 
-0.23168878 0.13117743 0.14694443 
0.43855655 -0.020401366 0.14694443 
-0.2122227 0.10304204 0.14694443 
0.10591822 0.058360524 0.063328646 
0.23807767 -0.087795466 -0.095269345 
0.13795598 0.12353343 0.14694443 
0.3342176 -0.11628361 0.14694443 
0.036920834 -0.036826562 -0.039961547 
0.25028953 -0.13541666 -0.011546233 
0.13244936 -0.13541666 -0.096212886 
0.2361617 0.070009224 0.07596897 
0.04254939 -0.06728278 -0.073010445 
-0.2837597 -0.13541666 0.005464683 
-0.04584322 -0.13541666 -0.014875447 
-0.118937194 0.009562395 0.14694443 
0.082097955 -0.13541666 -0.036723424 
-0.4140846 0.038011655 0.14694443 
-0.362476 -0.102790035 -0.11154036 
-0.46869236 -0.13541666 -0.0075652576 
-0.078462996 -0.13541666 -0.03392929 
-0.221085 0.034953583 0.037929118 
0.10890426 0.011146875 0.012095777 
-0.5 -0.0035587088 0.07394069 
-0.456852 0.037998755 0.041233514 
0.4846037 -0.13541666 0.06729511 
0.34649315 -0.02512234 -0.027260968 
0.19090734 -0.13541666 0.07457549 
-0.5 -0.021446608 0.09247728 
0.4664252 0.01898802 0.020604435 
-0.4435065 -0.002028991 0.14694443 
0.49232644 0.07286415 0.079066955 
0.09544138 0.09816138 0.10651767 
0.077974916 0.08441627 0.14694443 
-0.19598296 -0.039160427 -0.04249408 
-0.2486365 -0.13541666 -0.038968842 
-0.33667335 -0.13541666 -0.053337906 
-0.41699606 0.0074757854 0.14694443 
-0.40484962 0.11354717 0.123213224 
-0.5 -0.08709951 -0.05320264 
0.11830716 -0.09991782 0.14694443 
0.08745385 -0.13541666 -0.0033006987 
-0.2469503 -0.13541666 0.057084434 
-0.32486522 -0.13541666 0.047512148 
-0.056819174 0.09259635 0.1004789 
0.18657805 -0.13541666 0.11997258 
0.093077734 -0.046805646 0.14694443 
0.47413975 -0.022356495 0.14694443 
-0.34318024 -0.1312501 0.14694443 
0.39883476 0.052078955 0.056512337 
0.5 -0.07861366 0.08415642 
0.07881123 0.014934663 0.14694443 
-0.12408395 -0.13541666 0.09169624 
0.07738565 0.062381633 0.067692064 
-0.41552767 0.09671371 0.10494677 
-0.10363362 -0.13541666 0.07966198 
-0.090054445 -0.017056182 -0.018508153 
-0.27471748 -0.06675365 -0.072436266 
-0.34979704 -0.09985057 -0.10835068 
0.3595746 -0.13541666 0.12582257 
0.12685622 0.119837396 0.13003893 
0.20270321 -0.13541666 0.0981252 
0.20324783 -0.100068904 -0.10858759 
-0.13882011 -0.13541666 -0.074860066 
-0.010412545 -0.116905876 -0.12685786 
0.43921244 -0.13541666 -0.047095735 
0.37905046 -0.13541666 0.10217152 
0.5 -0.10600156 0.027979253 
-0.20083772 -0.13368632 -0.1450668 
-0.21481954 -0.13541666 0.08776147 
0.15403597 -0.09672758 -0.10496182 
0.38112593 -0.07620775 0.14694443 
-0.09479482 -0.13541666 0.05260668 
0.5 -0.0030387787 0.11384965 
-0.066170275 -0.046430733 -0.050383292 
-0.3790642 -0.13541666 -0.003972029 
-0.4204481 -0.027296484 -0.029620197 
0.4192013 -0.13541666 0.06294718 
-0.42475927 -0.13541666 0.10941652 
-0.5 -0.056258533 -0.038798638 
0.1107965 -0.021680642 -0.023526281 
-0.38085106 0.07872513 0.14694443 
-0.1690935 0.038583025 0.041867524 
-0.43079662 -0.10559913 -0.1145886 
0.33136833 -0.13541666 0.01284619 
0.006775119 0.0482592 0.052367404 
-0.4646905 -0.081786714 -0.08874908 
-0.022469275 0.07786755 0.14694443 
-0.32848936 -0.06744536 0.14694443 
-0.2442671 -0.067559786 -0.07331103 
-0.06541381 -0.13541666 0.04148079 
0.2288928 -0.11033069 -0.11972296 
0.069039136 -0.03338712 -0.03622931 
0.25171673 -0.1149346 -0.124718785 
-0.23421174 -0.13541666 -0.10493145 
-0.38119292 -0.13541666 -0.089129426 
0.005781272 -0.13541666 0.05972198 
-0.43846846 -0.11223304 -0.121787235 
-0.037363216 -0.13541666 0.098343454 
-0.17796141 -0.12004608 -0.1302654 
0.11121698 -0.12054964 0.14694443 
-0.34968585 0.109266706 0.14694443 
-0.5 -0.09387592 -0.10127299 
0.40126064 0.08727405 0.14694443 
0.21821384 -0.04609873 -0.050023038 
0.17756376 -0.13541666 0.011679481 
0.5 -0.10138924 0.067964576 
-0.1607355 0.114039436 0.14694443 
-0.3784302 0.12726739 0.13810144 
-0.008797925 -0.13541666 0.098235354 
-0.4171345 0.04124237 0.14694443 
-0.109539606 -0.014797794 -0.016057512 
-0.15717985 0.022215338 0.14694443 
0.48066166 -0.13541666 -0.023878496 
-0.037795406 0.016172586 0.017549321 
0.37239233 -0.13541666 0.01803781 
-0.17726108 -0.06775405 0.14694443 
-0.019114437 0.0916711 0.0994749 
-0.40091783 -0.06277251 0.14694443 
-0.3485013 -0.015815867 -0.017162252 
0.43223807 -0.13541666 -0.08652154 
-0.07026381 0.026842657 0.029127719 
-0.15055752 0.06795921 0.073744446 
0.4673001 -0.112527564 0.14694443 
0.12321179 -0.13541666 0.11378471 
-0.06484304 0.010286596 0.011162263 
-0.5 -0.0015892595 0.09397905 
0.30887443 -0.0244998 -0.026585422 
0.5 -0.061667394 -0.021755716 
0.43166795 0.044555325 0.048348233 
0.08861012 -0.10645058 0.14694443 
0.05333661 0.03732995 0.14694443 
0.29964474 0.13132976 0.14250961 
-0.5 -0.058551274 0.023973187 
-0.12935561 -0.13541666 0.057783738 
0.038948055 -0.13541666 0.023797996 
-0.5 0.0062974365 0.081471905 
-0.46701723 -0.12806515 0.14694443 
-0.023414321 -0.13541666 0.094569765 
-0.39688388 -0.13541666 0.109988056 
-0.43469477 -0.13541666 -0.09854432 
0.42364058 -0.13541666 -0.12815721 
-0.14379174 -0.13541666 0.04346653 
0.5 -0.13496298 0.13594025 
0.38759223 -0.13541666 -0.085564494 
0.04361222 -0.12892063 -0.13989542 
0.2566792 0.08394425 0.09109027 
-0.3994625 -0.13541666 -0.08648173 
0.40043283 -0.13541666 0.104381695 
0.3489458 -0.13541666 0.12234361 
-0.4094755 -0.092888825 0.14694443 
-0.29021218 0.08155756 0.088500395 
-0.2800136 -0.037747353 -0.040960725 
-0.22169247 0.1188312 0.14694443 
-0.20312446 0.018561501 0.14694443 
-0.40530035 -0.13541666 -0.13594072 
0.5 0.058392044 0.06706611 
0.021563733 -0.13541666 -0.05839788 
-0.04820066 -0.13541666 -0.14103103 
-0.13467412 -0.13541666 0.14686328 
0.17692749 -0.13541666 0.044654362 
0.4979846 -0.13541666 -0.0363325 
0.07527146 -0.13541666 -0.10660708 
0.14358155 -0.026861513 -0.029148191 
-0.3923368 0.09021719 0.14694443 
-0.39759892 -0.019325567 -0.020970717 
-0.099330574 -0.13076845 -0.14190054 
-0.5 -0.04226378 -0.03194532 
-0.11664162 0.08052172 0.14694443 
0.20393728 -0.13541666 -0.014378754 
0.08699717 -0.13541666 0.019915184 
-0.3105652 0.095028184 0.14694443 
-0.27178043 0.10794438 0.14694443 
-0.4369105 0.06843997 0.07426615 
-0.3106727 0.11344484 0.14694443 
0.019743532 0.078939565 0.14694443 
-0.23873365 0.052200206 0.14694443 
-0.23981078 -0.078556776 -0.08524418 
0.4709021 -0.13541666 0.08238285 
-0.1898751 -0.13541666 -0.06886153 
0.5 -0.048146993 0.012030045 
-0.15926434 -0.019513436 0.14694443 
-0.06530107 -0.13541666 -0.04050403 
0.171047 -0.13541666 -0.05639139 
-0.0035853027 0.06358563 0.06899856 
0.4477237 0.08683315 0.14694443 
0.43251967 -0.012115655 0.14694443 
0.41822687 -0.10527362 0.14694443 
0.3362091 0.1232918 0.1337874 
-0.2664332 -0.077049114 0.14694443 
-0.20859751 -0.13541666 -0.01405176 
-0.38974065 -0.12145715 -0.13179658 
-0.38014534 0.13538077 0.1469055 
-0.0015188232 -0.12750411 0.14694443 
-0.25069666 -0.05843712 -0.06341177 
0.086009115 0.0030547509 0.14694443 
0.4269941 0.12630239 0.14694443 
0.46832687 0.046727452 0.050705273 
-0.5 0.0053991815 0.03505447 
0.35621944 -0.03311678 -0.03593596 
0.3388854 0.06540968 0.14694443 
0.009573965 -0.023069106 0.14694443 
0.31221145 0.12866522 0.13961826 
-0.3743639 -0.097858146 0.14694443 
0.3108694 -0.08872146 0.14694443 
0.4471846 -0.13541666 -0.028142262 
-0.30869293 -0.0046483786 0.14694443 
-0.13069715 -0.13541666 0.007458295 
-0.010677829 -0.09836022 0.14694443 
-0.20473146 0.0681402 0.07394085 
0.24209982 0.13124295 0.14694443 
-0.054339316 0.0051218322 0.14694443 
-0.10801855 0.067729555 0.07349525 
-0.0193689 -0.13541666 -0.11168758 
-0.18313277 -0.06368028 -0.06910128 
0.09102698 0.039436225 0.14694443 
-0.24961458 0.1039771 0.14694443 
0.37097284 -0.07050486 -0.07650682 
0.41612956 0.03470268 0.03765686 
-0.22335836 -0.11854085 0.14694443 
0.22402634 -0.13541666 0.07702468 
0.30400768 -0.13541666 0.0039535 
-0.09927713 -0.13541666 0.14204052 
0.42813322 -0.10192019 0.14694443 
-0.5 -0.09673489 0.043797147 
0.37714478 -0.13541666 0.0042201215 
0.0004620538 0.08348692 0.090594016 
-0.20623441 0.017178677 0.14694443 
0.5 -0.0898548 -0.06958073 
-0.48621157 0.116250634 0.12614682 
0.22819944 0.12940317 0.14694443 
0.02435284 -0.06937136 -0.07527682 
0.5 -0.009605437 0.07914074 
0.4637817 0.071572706 0.077665575 
0.13092269 -0.13541666 -0.049738914 
-0.42544132 -0.036681753 -0.03980442 
0.27012452 -0.13541666 0.09757632 
0.122299835 0.068267 0.07407844 
-0.45499873 0.017651333 0.01915395 
0.05991125 -0.024802387 0.14694443 
-0.3975494 0.003742356 0.0040609334 
-0.3851936 0.03759055 0.14694443 
-0.024745839 0.08735639 0.09479288 
0.4503929 0.12713656 0.14694443 
-0.4963772 0.029702991 0.032231547 
0.0068838415 -0.023205567 -0.02518102 
-0.2783443 -0.05600528 -0.06077292 
-0.13117148 -0.12136735 -0.13169914 
0.4171051 -0.034910258 -0.03788211 
0.20688918 0.0018857 0.0020462256 
0.24139693 -0.07781422 0.14694443 
0.07657792 0.06513166 0.070676185 
0.07169687 -0.13541666 -0.06939542 
0.28017274 -0.08228401 0.14694443 
-0.5 -0.0867776 0.09607315 
0.17664905 -0.12734112 -0.13818146 
0.23965766 -0.05977647 -0.06486514 
-0.340625 -0.015687436 -0.01702289 
0.28785208 0.036271393 0.14694443 
-0.47340462 -0.13541666 -0.038076594 
-0.24167833 0.1208491 0.14694443 
-0.15956962 -0.09930405 -0.10775763 
0.44769529 0.016496997 0.017901346 
0.48245123 0.076288074 0.14694443 
-0.0006050399 -0.13541666 -0.04522084 
0.5 -0.04972376 0.06424415 
0.20522463 0.12389943 0.13444676 
-0.34982792 0.11589019 0.14694443 
-0.10588383 -0.10125465 -0.109874286 
0.5 -0.03845261 -0.017839497 
-0.32408577 0.053244434 0.057777025 
0.042001627 -0.13541666 0.10463179 
0.04429098 -0.060336765 0.14694443 
-0.32883474 -0.100625224 0.14694443 
0.0700013 0.03213455 0.14694443 
0.24970312 -0.08258916 0.14694443 
-0.16966884 -0.13541666 -0.10077759 
0.31426147 0.10214878 0.14694443 
-0.44173446 0.08017441 0.14694443 
-0.29717046 -0.099361874 -0.10782038 
0.2545927 -0.13541666 0.025087673 
0.1762818 -0.0153222885 0.14694443 
0.4410993 -0.06112119 -0.06632433 
0.26078883 0.0683247 0.14694443 
-0.30911008 0.08624576 0.14694443 
0.2030987 -0.11118565 -0.12065068 
0.4398155 -0.09686414 0.14694443 
-0.5 -0.053632658 0.057699222 
-0.02726004 0.11136389 0.14694443 
-0.03880705 0.09802666 0.106371485 
0.21579257 0.03943291 0.14694443 
-0.075686276 0.07945681 0.086220816 
-0.26166815 -0.06627789 0.14694443 
-0.20146237 0.08441948 0.09160596 
-0.32313725 -0.13541666 0.10151438 
-0.24723406 0.08283226 0.089883626 
-0.45089942 -0.004484744 0.14694443 
0.3269719 0.10458741 0.11349075 
0.03757953 0.12358426 0.13410477 
-0.05445144 -0.13541666 -0.037465457 
0.4250568 -0.050755605 -0.055076342 
0.12612103 0.10046193 0.14694443 
-0.013496752 -0.025830556 -0.02802947 
0.26244807 -0.0045289695 0.14694443 
0.45416647 -0.022475865 -0.02438921 
-0.0615425 0.04399687 0.04774224 
-0.17950481 -0.02010241 -0.021813693 
0.21996656 -0.051736075 -0.05614028 
-0.22305404 0.092691824 0.14694443 
0.24728014 -0.13541666 0.00901358 
-0.15948051 -0.13541666 -0.09965014 
0.5 0.06115353 0.06694443 
0.050949577 -0.13541666 0.05271591 
0.33478636 -0.1266461 -0.13742727 
-0.23658279 0.043984145 0.047728423 
0.48774517 0.011128635 0.012075989 
-0.11896856 -0.13541666 -0.098612085 
-0.029294057 -0.13435839 0.14694443 
0.084359735 -0.09299957 -0.10091646 
0.3096504 -0.13541666 -0.002664323 
0.5 -0.013221885 0.08121537 
0.074374676 0.12623626 0.13698252 
0.20695949 -0.07106366 0.14694443 
-0.4910914 -0.13541666 0.13746522 
0.5 0.035986975 0.10336472 
-0.058422275 -0.054118555 -0.058725573 
0.15396436 -0.12613134 -0.13686867 
-0.42656642 0.11798166 0.14694443 
0.13473326 -0.13541666 -0.028908031 
-0.053032994 -0.13541666 0.0652573 
0.24597204 0.0016145948 0.0017520317 
-0.33460832 0.06941182 0.14694443 
-0.4259158 -0.13541666 0.0821277 
-0.20165654 -0.05540403 -0.06012049 
-0.45762524 -0.13541666 0.07992065 
-0.34558386 -0.13541666 -0.025729876 
-0.5 0.009662475 0.08136636 
0.1439222 -0.13541666 0.122879505 
-0.044203684 -0.049936067 -0.054187052 
0.019233417 -0.043890078 -0.04762637 
-0.09350413 0.038235076 0.041489955 
-0.04738343 0.08199366 0.088973634 
-0.15175621 -0.13541666 0.11474837 
0.37361425 -0.054873895 -0.059545223 
-0.4633131 -0.13541666 -0.10428697 
-0.45424178 0.1251601 0.14694443 
-0.41269043 0.066156164 0.14694443 
0.44240707 -0.13541666 0.1333786 
0.13820869 0.0023474633 0.14694443 
0.0355705 0.09735074 0.105638035 
-0.15226325 0.008088268 0.008776807 
0.38086092 -0.13541666 0.023017839 
-0.295478 0.13418113 0.14694443 
-0.5 -0.0014531648 0.064705595 
0.46227783 -0.10038656 -0.1089323 
0.13154723 -0.13541666 0.020482667 
0.26492584 0.11478212 0.12455331 
0.21008343 -0.060490746 0.14694443 
-0.0938818 -0.1216549 -0.13201116 
-0.4673024 0.04836972 0.05248734 
0.18764529 -0.11215467 -0.121702194 
0.110266425 -0.022008767 -0.023882339 
0.00023428608 -0.13541666 0.046286486 
-0.19726609 -0.13404971 -0.14546113 
-0.19573872 -0.023129176 0.14694443 
-0.33826298 0.0077095013 0.008365798 
0.2369077 0.13130926 0.14248736 
0.22940707 -0.058638517 -0.06363031 
0.15950815 0.05506808 0.14694443 
-0.32024834 -0.0019564899 0.14694443 
-0.4074763 -0.06240342 -0.06771573 
0.014339304 0.05082326 0.05514976 
-0.07895623 0.085254714 0.09251229 
-0.10486472 -0.022007834 0.14694443 
0.27755126 0.119083 0.1292203 
0.1741886 -0.05145562 -0.055835962 
0.20987138 0.08434676 0.091527045 
-0.2164374 -0.13541666 0.101345114 
0.17739671 0.07154284 0.14694443 
-0.27878332 -0.106345676 -0.1153987 
-0.11749547 0.046986703 0.050986595 
0.064084984 0.061881147 0.06714897 
0.2316358 -0.13541666 0.13302054 
-0.4007784 -0.13541666 -0.09073044 
0.050909095 0.049069274 0.053246442 
-0.05830543 0.1287495 0.13970971 
-0.48534083 -0.074081786 -0.08038823 
0.37700745 -0.13087657 -0.14201784 
-0.4933842 -0.08083595 0.14694443 
0.09297545 0.06981009 0.14694443 
-0.47180897 -0.13541666 0.11255089 
-0.47652575 0.031064777 0.033709254 
-0.41049302 0.026074436 0.14694443 
0.4044644 -0.11896729 -0.12909476 
0.07389438 -0.13541666 -0.016611295 
-0.075175546 -0.13541666 -0.11306994 
0.014171345 -0.13541666 0.06360542 
0.5 -0.103810504 0.13681443 
-0.1982849 -0.052463625 -0.056929767 
0.14951655 -0.13541666 0.094215855 
0.2909212 0.12734973 0.14694443 
-0.30410826 0.09196897 0.14694443 
-0.31734613 -0.13541666 0.14638141 
-0.13639812 0.010384781 0.011268811 
-0.45541492 -0.13541666 -0.060791165 
-0.5 -0.09285173 0.14170353 
0.31798738 0.07790928 0.08454156 
0.124090604 -0.12229086 -0.13270126 
0.18290512 -0.032897756 -0.035698295 
-0.4288777 -0.08848474 -0.0960173 
-0.40488395 -0.13541666 -0.038711384 
-0.22658092 0.026450736 0.028702436 
-0.455808 0.032293744 0.035042845 
0.43296805 0.00085929135 0.0009324319 
-0.15243971 -0.13541666 -0.027671922 
-0.5 -0.08576055 -0.023167415 
0.5 -0.07113484 0.0808585 
0.2789492 -0.03316443 0.14694443 
0.0314818 0.04544614 0.04931488 
0.22636792 -0.13541666 -0.011731566 
0.17948136 0.112298414 0.121858165 
-0.22542088 -0.029023692 -0.031494427 
0.025296811 0.09668818 0.14694443 
-0.004300803 0.077378884 0.083965994 
0.07147381 0.020193039 0.14694443 
0.31781322 0.040510185 0.14694443 
0.027603073 0.091965675 0.09979455 
0.1959942 0.020616999 0.022372084 
-0.082676254 0.09334357 0.14694443 
0.28380662 -0.011584636 0.14694443 
0.28549406 -0.13541666 0.07168889 
-0.4584666 0.089426525 0.14694443 
-0.1887217 -0.027294312 0.14694443 
0.15531197 -0.13541666 -0.009947086 
-0.36965704 -0.13541666 0.14102899 
0.16269045 -0.013300412 0.14694443 
0.4764254 -0.052242618 0.14694443 
0.104111716 -0.038978517 0.14694443 
0.5 0.0024721483 0.07091068 
0.011259932 0.048915148 0.14694443 
0.1046854 0.077931754 0.08456594 
0.49222893 -0.07672547 0.14694443 
0.46981865 -0.13541666 0.0055948747 
0.49842632 0.061531365 0.06676941 
0.3169837 0.11879547 0.1289083 
-0.23650663 0.0684126 0.07423644 
0.16323534 -0.13541666 0.08310321 
-0.15775365 -0.13541666 -0.06839358 
0.16931187 -0.00091819366 0.14694443 
-0.06407886 -0.08130387 -0.088225126 
0.02862523 0.00373541 0.00405339 
0.044107143 0.024325628 0.14694443 
0.3431677 -0.021700082 -0.023547385 
-0.4017218 -0.13541666 -0.057077646 
0.21167521 -0.07357446 0.14694443 
-0.1371437 0.117969215 0.14694443 
-0.35564673 -0.07080726 -0.07683496 
0.34177998 0.011446546 0.012420963 
-0.2620062 -0.13541666 0.08398244 
-0.114674255 -0.07261838 0.14694443 
-0.3878007 -0.13541666 0.14578256 
-0.14736529 -0.13541666 -0.122108035 
-0.2565561 -0.13541666 0.06351985 
-0.14141136 -0.10947698 0.14694443 
0.3293599 0.042828526 0.04647443 
-0.22478601 0.050631426 0.05494158 
0.037127502 0.09502285 0.103111975 
0.020822603 -0.1320024 0.14694443 
-0.23703744 -0.13541666 -0.038398407 
-0.41661137 0.09125873 0.14694443 
-0.14699689 0.039591316 0.04296165 
0.2364022 0.014743533 0.015998622 
-0.23736723 -0.057044342 -0.061900433 
-0.066551775 -0.06168725 -0.06693858 
0.072015695 -0.102125265 -0.11081901 
-0.22938202 0.04267944 0.046312656 
0.1804673 -0.07217049 -0.07831424 
-0.17901774 0.07399623 0.14694443 
0.19184089 -0.13541666 0.1321589 
0.37259948 -0.084902674 -0.09213029 
0.29934657 0.13269198 0.14398782 
0.17686765 0.0916664 0.099469796 
0.30616602 -0.13541666 0.046463195 
-0.0415429 0.11900809 0.12913904 
-0.2731342 -0.13541666 -0.034151874 
-0.38601363 -0.08231808 0.14694443 
0.07354422 -0.13509567 0.14694443 
0.48819008 -0.10709743 -0.116214454 
-0.29584253 0.107382104 0.14694443 
0.01518348 0.012348511 0.013399714 
-0.19798647 -0.01265716 0.14694443 
-0.43966758 -0.13541666 0.14440268 
-0.27354947 -0.0966986 -0.10493038 
-0.04669064 0.058342785 0.06330939 
-0.39963466 0.076259606 0.082751445 
-0.17033458 -0.097757965 -0.10607993 
-0.08587609 -0.045606107 0.14694443 
-0.2329025 -0.13541666 0.06989906 
0.31466934 0.016721955 0.018145455 
-0.5 0.07350021 0.14374433 
0.40311873 0.08374401 0.09087298 
-0.284886 0.011222965 0.14694443 
-0.25536892 -0.13541666 -0.11823436 
0.23505178 -0.05845944 -0.06343599 
0.0034895006 0.10343525 0.1122405 
-0.5 -0.034835927 0.054928895 
-0.13258207 -0.13541666 -0.12081245 
0.48418918 -0.022801785 0.14694443 
0.060276236 -0.13541666 -0.10144214 
-0.22911811 0.09780902 0.106135316 
0.33801118 0.10756881 0.14694443 
-0.27185765 -0.035082713 -0.038069233 
-0.44026104 -0.13541666 0.04477845 
0.023869969 -0.13541666 -0.1299134 
-0.4789507 -0.13541666 0.09757892 
-0.35854343 -0.13541666 -0.02888846 
0.3070513 -0.13541666 0.13966669 
0.19220752 -0.01566367 0.14694443 
0.16083972 0.1111344 0.120595075 
-0.38333943 -0.13541666 0.10725587 
0.27119592 -0.028544797 0.14694443 
0.22013088 -0.13541666 0.063824706 
-0.34375718 -0.05842178 -0.06339513 
-0.058130037 0.10727711 0.11640941 
0.000104029416 -0.06896309 -0.0748338 
0.13602883 -0.082757525 -0.089802526 
-0.2667139 -0.024736153 0.14694443 
0.38782868 0.0700738 0.07603905 
-0.47475514 0.09026184 0.14694443 
-0.37055838 0.09776878 0.10609167 
-0.20412128 -0.050987594 0.14694443 
0.49652067 0.109928556 0.119286574 
-0.1660433 -0.12810776 -0.13901335 
0.4275329 0.028332552 0.030744439 
0.10829483 -0.087798364 0.14694443 
-0.23680764 -0.13356674 -0.14493704 
-0.32033905 -0.12851782 -0.13945833 
-0.210892 0.12495306 0.13559009 
-0.23959433 0.087677725 0.09514158 
-0.12238224 -0.014407365 -0.015633844 
-0.03163129 -0.011069326 -0.0120116435 
0.3364527 -0.13541666 0.14445102 
-0.317936 -0.13541666 0.10476322 
0.23713332 -0.0139900595 -0.01518102 
0.103576906 -0.03680161 -0.03993447 
-0.47212583 0.021190831 0.022994768 
0.41798076 -0.07313327 -0.07935898 
-0.02285211 -0.12003527 -0.13025366 
0.45003888 -0.13541666 -0.013080778 
0.21017703 0.0059829536 0.14694443 
0.024455078 -0.048099186 -0.052193787 
-0.08654817 0.032538887 0.14694443 
-0.26149094 -0.06926672 -0.07516328 
-0.157544 0.09293926 0.14694443 
0.473453 0.06542202 0.14694443 
-0.32247975 -0.13541666 0.09981531 
0.08238811 0.018669292 0.02025857 
-0.25415632 0.118016936 0.12806349 
0.5 -0.042191334 0.100597315 
0.259565 0.0703669 0.14694443 
-0.23936361 0.11236322 0.14694443 
-0.07161364 -0.03055146 -0.033152256 
-0.07241031 -0.124481134 0.14694443 
0.46918523 -0.13541666 -0.13613264 
-0.070172064 0.11719463 0.1271712 
-0.44581932 -0.13541666 0.038295817 
0.25897238 0.06939758 0.07530526 
