0.09593486 0.38110906 0.038173944 
-0.13165553 -0.16006683 0.088858664 
0.006861512 -0.28695083 -0.08298585 
-0.21416403 -0.12554622 -0.2027546 
0.022512285 0.48677275 -0.05819535 
0.15703608 0.035435252 -0.23050427 
-0.24934568 0.33630452 -0.09158811 
-0.31976417 -0.3528725 -0.01171384 
-0.02690301 -0.0050362037 0.1576687 
0.13356122 0.23917477 -0.2956945 
-0.059722904 0.49834704 0.2092477 
-0.12350684 -0.17602552 -0.20357119 
-0.2569492 -0.02571524 -0.0877955 
-0.13491766 0.42973718 0.34912217 
-0.25460353 -0.084833264 -0.24059223 
-0.16576242 -0.123963915 -0.23726717 
-0.12623836 0.2378919 0.24616227 
0.019429909 -0.4460136 0.005857367 
-0.08164633 -0.003923114 0.17846905 
0.03055991 0.36652565 0.19745187 
-0.28665408 0.277614 -0.086073264 
5.905101e-05 0.09082607 0.28921953 
0.081648804 0.46483338 -0.008196504 
0.050318338 0.34028348 -0.197151 
0.026212282 -0.2143212 0.20764019 
-0.28474206 -0.31478986 -0.049567822 
-0.14928304 0.010149183 0.29792914 
-0.33198148 -0.047974683 -0.260334 
-0.32263076 0.35044074 -0.12884738 
0.20369773 -0.3812167 -0.19930814 
-0.13117637 0.45685852 -0.0008855557 
0.13705039 -0.22903812 -0.012751579 
0.046531312 -0.06562268 0.19404927 
-0.17554346 -0.37753236 0.28267393 
-0.31694937 0.23031935 -0.14135936 
-0.13586366 0.09620552 0.3587399 
-0.12579723 0.11578214 -0.3307257 
-0.0138199 0.46106052 -0.21778372 
-0.08500359 0.32795152 -0.22785038 
0.06730567 -0.19318959 -0.23842928 
-0.3145003 0.06288755 -0.18378294 
-0.16440666 0.41755587 0.19773993 
0.056191754 0.1678017 0.15362808 
-0.10965228 0.12971146 -0.33093736 
0.042586435 0.3343428 0.17057092 
0.057902634 0.46536022 -0.22555427 
0.033617444 0.49245217 0.15311298 
0.181402 0.3902534 -0.18179521 
0.0040069544 0.0673122 0.2821196 
-0.30208242 0.1525844 -0.22328742 
-0.07891799 0.13175069 0.2661868 
-0.37706563 0.06300415 -0.2441329 
0.112393044 0.041919746 -0.2629178 
0.027156312 0.13727213 0.22354554 
-0.19006771 -0.45556694 0.30371535 
-0.11703835 0.10720915 0.3083049 
-0.13995428 0.18248828 -0.3121665 
0.0025717085 0.046864767 -0.31907633 
-0.21954717 0.2750339 0.09873778 
-0.07689228 -0.42005226 -0.03821902 
-0.13062139 0.05065491 0.34426945 
-0.22775665 0.18612957 0.06443137 
-0.28556705 0.41015092 -0.040587906 
-0.2029668 -0.14183217 -0.15530854 
-0.26533583 0.18958744 0.016351188 
0.15534152 -0.18398249 -0.19800794 
-0.031107016 -0.35952437 0.09321062 
-0.023891551 -0.19233318 -0.24404484 
0.05895046 -0.020929134 0.16156705 
0.18683301 -0.18201683 -0.14303441 
-0.038880315 -0.34110534 0.11942118 
0.102461696 0.073418714 0.04991501 
-0.030399613 0.3842517 -0.29791072 
-0.100711584 0.45729846 -0.0701385 
0.088471256 0.49462813 -0.09180791 
-0.09459445 0.5047373 0.17279361 
0.18700944 -0.15454905 -0.15021613 
-0.32824624 0.06145894 -0.20309547 
0.09862653 -0.037194572 -0.26551193 
-0.17909077 0.27223498 -0.25430244 
-0.03639842 -0.06256882 0.30468655 
0.023835706 -0.20522058 0.22295001 
-0.16101573 -0.36211333 -0.057928473 
0.07549717 -0.4133023 -0.11855525 
-0.04705961 -0.15222177 -0.2680032 
-0.12120126 0.10775548 0.11473577 
-0.16110529 0.25993076 0.39757672 
-0.07430257 0.026591059 0.2790851 
0.05243875 -0.13540329 -0.2637755 
0.035161957 -0.2690588 -0.19611269 
-0.31070036 -0.38885033 0.10488992 
0.1263616 -0.4673544 -0.046980478 
0.1643412 0.33939764 -0.10652757 
-0.18519895 -0.4537495 -0.0052226065 
0.09889223 -0.09811902 0.07139847 
-0.25464207 0.14828676 0.06382335 
-0.26062268 -0.39134097 0.20747484 
0.09300495 0.4833609 -0.19109921 
0.11958197 0.4620866 -0.029285194 
-0.10585283 0.3880463 -0.22898413 
-0.14711653 0.36542037 0.3915767 
-0.091299355 -0.21758598 -0.11073244 
0.04085504 -0.28495193 0.11080168 
-0.23571049 0.22028452 0.103852004 
0.16040339 -0.25055486 -0.042785343 
-0.034585804 0.36504197 0.34348598 
-0.117462985 -0.13711743 -0.2597476 
0.18874837 0.26161462 -0.1584636 
-0.24545564 -0.11048939 -0.23350094 
-0.38928425 0.084894225 -0.23932953 
0.04241322 0.40315533 -0.26669878 
-0.047387924 -0.09034922 0.3092928 
0.069974326 0.48749775 -0.10265815 
-0.10994401 0.2574405 0.2941431 
-0.18792312 0.26573586 0.37816358 
-0.048401393 0.33051705 -0.2503479 
-0.07492823 -0.12415021 0.18589863 
-0.27109468 -0.19180273 0.11313553 
0.04211554 -0.30373403 -0.06907178 
-0.15839575 -0.19650225 -0.11126468 
0.13919435 0.2186126 -0.054929484 
-0.35009736 -0.36238107 0.024083883 
0.0801652 -0.3575114 -0.21982346 
-0.2056947 -0.15670149 0.099244535 
0.18247062 0.26106298 -0.14354135 
-0.08811244 -0.10064781 0.11168056 
-0.17998081 -0.14505553 -0.069417566 
-0.15410304 0.380722 -0.13467525 
0.043378152 -0.315547 -0.05753949 
-0.06016033 0.25119343 -0.29325873 
-0.077224724 0.3374786 -0.25398895 
-0.1247233 0.43935552 0.34467888 
-0.16494507 0.27060467 -0.26174527 
-0.120081276 0.08891101 0.37595737 
-0.14821868 0.15030484 0.37097502 
0.036454313 0.102044515 0.21005234 
0.09896719 0.3113378 0.03594102 
-0.3137098 0.24945179 -0.17585391 
-0.18515182 0.23428561 -0.27577552 
0.06870673 -0.072638154 0.14180546 
0.12389338 -0.06943486 0.00754737 
0.05876057 -0.3081059 -0.058560196 
0.17346892 0.42843097 -0.16377416 
0.15092559 -0.068137534 -0.05671348 
-0.17039907 -0.41594243 0.29701513 
-0.12947094 0.21122102 0.42463762 
-0.027706383 0.25425687 -0.28975338 
-0.29995465 0.33615026 -0.089761876 
0.16558547 0.24875446 -0.31363672 
0.10736804 -0.40193388 0.0653629 
0.05801416 0.4757499 0.09838224 
0.05400064 0.09844898 -0.30321673 
-0.27310506 -0.3714126 0.1243337 
0.15294214 0.09829206 -0.08012848 
-0.18077426 0.38046545 0.3347735 
0.17917506 0.08783544 -0.2119375 
-0.019095702 0.33633533 0.31445205 
-0.10420484 -0.2821986 0.14738788 
0.14369825 -0.12538572 -0.20821264 
-0.04284492 -0.00519253 0.39599183 
-0.13587764 0.48018223 0.14234802 
-0.22752541 0.22459333 0.14515904 
0.073244676 -0.4598961 0.056599047 
-0.15151542 0.29806173 0.40731785 
-0.26623973 0.2710307 -0.008094007 
-0.11927238 -0.43642026 -0.058452893 
-0.08006641 0.09197935 0.4017342 
-0.35021338 0.15503255 -0.22061326 
-0.09061353 0.01524756 0.18487391 
-0.055630434 -0.24257246 -0.104951836 
-0.06106362 -0.39167187 -0.008246139 
-0.3343575 -0.4226924 -0.03155925 
-0.11173553 -0.19736758 -0.14975446 
0.016083451 0.48759997 -0.07244869 
0.16400059 0.2431372 -0.3107349 
-0.10708263 0.4025344 -0.22126637 
-0.26582405 -0.33750215 -0.043341096 
-0.20040515 -0.16553505 0.15730466 
0.09748245 0.1544063 -0.27064177 
0.055419356 -0.32874924 0.076366305 
0.20129696 0.26204512 -0.31491303 
-0.11924572 -0.07388037 0.36476195 
0.12596105 0.243641 -0.2920222 
0.05156572 -0.2864057 -0.20150878 
0.07361041 -0.43080437 0.06228724 
-0.2570452 0.34978673 -0.035077717 
-0.18341145 -0.36621052 -0.05290539 
-0.19445954 -0.1791073 -0.16809846 
0.17930776 0.29203594 -0.13994364 
0.0707771 -0.48708758 -0.030151809 
-0.332956 0.19201884 -0.16418225 
-0.08168373 -0.36523625 -0.043966126 
-0.27410272 0.24812639 -0.18963331 
0.19342028 0.19704217 -0.23322435 
-0.31238455 0.20209393 -0.11440264 
0.04459358 -0.40728867 -0.024153268 
-0.014653631 -0.045184463 0.34219095 
-0.2162471 0.28287706 0.1072722 
-0.2344132 0.34945673 0.030367 
-0.0404768 -0.26399076 -0.08099596 
0.17194977 -0.36473194 -0.06398973 
-0.1573362 0.1605413 0.35276207 
0.2142938 0.36376306 -0.2941409 
0.17978993 0.3857054 -0.17641614 
0.15547504 -0.18660593 -0.05914131 
-0.23677558 -0.11657528 -0.18971168 
-0.31885767 -0.37923247 0.10817198 
0.173275 0.14929149 -0.13648304 
0.126861 -0.30150798 0.019192819 
-0.25076497 -0.09316986 -0.18202041 
-0.29501492 -0.3985235 0.09404388 
-0.14379355 0.47254503 0.10748539 
-0.046093516 0.26666442 -0.2846502 
-0.18039429 -0.14665999 0.12140556 
0.068763286 0.36659136 0.105257384 
-0.30542222 0.05213019 -0.15673321 
0.10715793 0.50771445 -0.13053304 
-0.12410857 0.4765889 0.28269884 
-0.33622727 0.2680408 -0.15290906 
-0.17386124 0.40021417 0.3187147 
0.19713375 -0.3522915 -0.24925733 
-0.23721462 -0.42773923 0.02571812 
0.110954925 0.23612274 0.014362324 
-0.016260589 0.4987546 0.05914284 
0.0022625842 -0.30857125 0.11913931 
0.16529132 0.2190177 -0.09979601 
0.15421224 -0.36720785 -0.019747594 
-0.0014783493 0.44068387 0.26495394 
0.12192206 -0.061431002 -0.2420663 
-0.09384897 0.08737781 0.39818516 
0.055982728 0.35119972 0.13676895 
0.04971098 0.47533825 -0.2088952 
0.0859275 -0.31451362 0.07336523 
-0.36511016 0.0678566 -0.22801745 
0.0022839042 0.067814454 0.2885142 
-0.26336402 -0.12105648 -0.23505302 
-0.27599165 -0.21833535 0.15557718 
-0.08414859 0.17623845 0.2756424 
0.124699056 0.4475 -0.22126412 
-0.058777098 0.052010998 0.15597874 
-0.12225465 0.1808143 0.40282702 
-0.28139666 0.10295239 -0.024163708 
-0.11165268 0.46470067 -0.008168233 
-0.012916988 -0.13233325 0.34370518 
0.15652072 0.2082631 -0.24532235 
-0.15804915 0.45663613 0.23163536 
-0.21893886 -0.4595541 0.28856045 
-0.015407993 0.14241803 0.34753335 
0.14226432 0.22722 -0.26360217 
-0.13345999 -0.23226534 -0.059683215 
-0.30994925 0.06558193 -0.2492536 
-0.13833718 -0.42454588 0.074831575 
-0.19670124 0.4382638 0.011879102 
-0.12640688 -0.21827497 -0.00012592519 
0.08539086 -0.1480305 0.1110817 
0.18774714 0.18673079 -0.17590824 
-0.33069977 0.0767113 -0.2529813 
0.12086141 0.3587509 -0.27840415 
0.052423615 0.4744292 0.13029303 
-0.0046521844 -0.31331992 -0.060718127 
-0.099230416 0.30205667 0.2663909 
-0.119746774 0.44585904 -0.0410663 
0.14230052 -0.45927462 -0.026144668 
-0.1649165 0.115334354 -0.321065 
0.1983746 -0.29132742 -0.16279903 
-0.3090002 0.034585204 -0.22307448 
-0.12149893 -0.1702101 -0.0061581046 
-0.20748274 0.08077312 -0.3017654 
-0.25267184 -0.41459456 0.09490509 
-0.23983815 -0.4940645 0.2175334 
-0.067791745 -0.16457947 0.26408967 
0.05389271 -0.02687642 -0.29368734 
-0.049829703 -0.015307138 0.1652068 
-0.19875324 0.3680298 0.099957064 
-0.17831822 -0.506049 0.2544696 
0.0005434276 0.46250522 -0.18170227 
-0.19207348 0.4089989 0.28483602 
0.025710825 0.2878697 0.21447937 
0.16357638 0.44075492 -0.13971949 
-0.08451168 0.18277726 0.277056 
0.14137731 -0.22268717 -0.022170087 
-0.21409738 -0.4315873 0.020740526 
0.102082275 0.48164263 -0.19231367 
-0.15068606 -0.46543363 0.29699063 
-0.09904811 -0.17103115 0.33615458 
-0.26519766 0.038745202 -0.26041102 
-0.08574984 0.2825505 0.26227286 
-0.22745131 -0.43049568 0.2929207 
-0.26350462 0.32699654 -0.11686269 
-0.21477932 -0.4740439 0.15344825 
0.15855628 -0.014040293 -0.21985069 
-0.05230758 -0.2329414 0.21291398 
0.120642215 0.20612907 -0.006456282 
-0.3349056 -0.009051792 -0.26263395 
-0.14602233 -0.43243402 0.3079629 
-0.21141157 -0.22766691 0.026003812 
0.16600694 -0.22117369 -0.06894028 
0.045353424 -0.40787563 -0.058949072 
-0.33943605 0.30110884 -0.1314239 
-0.0988002 -0.21008413 -0.11573041 
0.07670774 -0.07591883 0.12297897 
-0.19960588 -0.18094516 -0.16841142 
-0.11395306 0.117738865 -0.33191723 
-0.26205707 0.30738208 -0.032972023 
-0.1569093 -0.3682466 -0.05930981 
-0.0056380387 -0.35798934 0.08063031 
-0.21526216 0.37538645 0.3297632 
-0.14129028 0.012400154 0.2973607 
-0.26593858 -0.16461812 -0.20019339 
0.09803696 -0.46306768 -0.08754303 
-0.27754048 -0.34119827 0.10543803 
-0.08776301 0.36933818 0.41401005 
-0.26392356 -0.23187418 0.062245384 
-0.15737464 0.46102864 0.11524921 
-0.2881507 -0.043304242 -0.21663329 
-0.011812384 -0.23611395 -0.20398208 
-0.2649923 -0.29606855 -0.025440395 
0.008739471 -0.059910987 0.28492746 
0.102864206 -0.3819049 -0.22795069 
-0.059437398 0.08030722 -0.33494085 
-0.025669957 -0.12152533 0.37190926 
0.043710753 0.26071334 0.17830947 
-0.25101715 -0.24550214 0.036524 
-0.011444928 -0.026372906 0.18746549 
-0.123342134 0.057828147 0.36368394 
-0.113072455 0.26543498 0.24051091 
-0.26320776 -0.10900703 -0.19981399 
-0.1497978 0.14232895 0.2069238 
-0.16237457 0.33696353 0.15529244 
-0.26895946 0.14368112 0.081192896 
-0.12646846 0.111339845 0.15638794 
-0.06898401 -0.1755944 0.3369935 
0.20237115 0.19371796 -0.21827197 
-0.34837815 0.19330192 -0.21572699 
-0.079936296 0.079245985 0.18578097 
-0.08818236 0.4226617 0.3754718 
0.08758482 0.49181375 -0.07021088 
0.22082219 0.2657494 -0.26785672 
-0.24053173 -0.26842907 -0.00867865 
-0.11217738 -0.30723768 -0.052608404 
-0.12614425 0.3397227 0.23739016 
-0.131637 0.48246148 0.121418566 
0.073807456 0.43905303 -0.24203184 
0.02982228 0.13322635 -0.31065884 
-0.207817 0.27399787 0.14650281 
-0.0697243 -0.3106241 0.1452095 
-0.20002188 -0.37431386 0.24999416 
-0.14370304 -0.13865194 -0.23602068 
0.16028596 0.3673785 -0.3138689 
-0.023965921 -0.26279277 -0.117532566 
-0.046728186 -0.10710336 -0.2936677 
0.07147928 -0.09328147 0.13640454 
-0.17892157 -0.37210464 0.25479805 
-0.016608708 -0.30275774 -0.06820017 
-0.075623356 -0.08957329 0.33597052 
0.045481533 -0.3576834 0.04735442 
0.02907621 0.012954504 0.2292739 
0.043360114 -0.42642552 -0.036331113 
0.024717001 0.48501518 -0.067071036 
-0.118050896 0.49200895 0.21898416 
-0.042746242 0.49820808 0.19277067 
-0.09651244 0.21239263 -0.30822483 
0.012668079 -0.038114317 0.13498518 
0.021769257 0.42580125 -0.27384633 
-0.08632328 0.10127098 0.2095986 
-0.1783141 -0.17249918 0.054653183 
-0.19655335 0.014493486 -0.29957607 
0.15933087 -0.4230394 -0.17141987 
-0.080203585 -0.018995004 0.39931017 
0.20254868 -0.33038053 -0.1668629 
-0.24600469 -0.19430543 0.07970648 
0.053672902 0.020103151 0.170689 
-0.0011098644 0.4602339 -0.16562921 
-0.16341183 0.39783934 0.19818051 
-0.13471176 -0.16990207 0.19413397 
-0.00048163056 0.49827302 0.066264525 
0.18978485 0.31019 -0.1634996 
-0.0997487 -0.3852225 0.23572104 
-0.25204992 0.40594703 -0.013666193 
-0.18880796 -0.349817 0.18163809 
-0.14233655 -0.39883277 -0.06858994 
-0.10111228 0.09927829 0.3871324 
-0.13150732 -0.23082355 -0.03167171 
0.20294517 0.24067052 -0.31177709 
-0.22375982 -0.24915731 0.17778768 
-0.3463219 0.3140911 -0.1596498 
0.12020147 -0.112454854 -0.23035702 
0.13902111 0.2202673 -0.054956455 
-0.19204554 -0.42338297 0.299361 
-0.15561277 -0.39686546 0.29929546 
0.119906 0.020783376 0.01099824 
-0.08994455 0.449178 -0.19853377 
0.16638833 0.123063 -0.11429262 
0.026570255 -0.46588632 0.00908469 
0.17312205 0.34855658 -0.1292313 
-0.27685088 0.36894014 -0.08099014 
0.11695572 0.057155736 -0.26052085 
-0.27395386 -0.2501347 0.10241633 
-0.22126538 -0.14637811 -0.19969456 
-0.021674793 0.50315607 0.21228743 
0.2026625 -0.30319777 -0.13881946 
0.14527619 0.11533581 -0.061173238 
-0.22640786 -0.449892 0.13996367 
0.20871632 -0.36772984 -0.18761009 
-0.045022972 0.4805844 -0.14529899 
0.031865954 0.38608772 0.19433258 
0.15865003 0.16826954 -0.10042984 
0.16599104 0.20289473 -0.24398999 
0.068184264 -0.22273813 -0.23691289 
-0.035483513 -0.31852078 -0.05334137 
0.16057338 0.36468375 -0.10158515 
0.006610953 0.022177804 -0.3158765 
-0.24661899 -0.048013598 -0.088267125 
0.0060942974 -0.26997653 -0.1489029 
0.09377986 -0.16948067 0.087992415 
0.05058263 0.42381838 -0.26325563 
-0.09439647 -0.43460667 -0.04610182 
0.10955814 0.4555845 -0.023237595 
-0.11798746 -0.08611335 -0.2980082 
0.036590427 -0.20614716 0.12953027 
0.03792035 0.47791103 0.01892502 
-0.17448099 0.1291428 0.3736296 
-0.27951533 -0.047115844 -0.17868705 
-0.03478516 -0.025598714 0.38646424 
0.13615844 0.13009726 -0.03987492 
-0.33209524 -0.3451391 0.016686741 
-0.021785336 0.17210008 0.3601067 
-0.1889571 -0.028677637 0.01655412 
0.11131703 0.13104852 0.02118865 
-0.21411343 0.3051381 0.09006999 
-0.18478268 0.26819053 -0.25382936 
-0.115379974 -0.22567116 -0.034281492 
0.18246487 -0.27531132 -0.25454473 
0.047717478 -0.051632185 -0.2910708 
-0.10430724 -0.114655666 -0.28330228 
-0.013478548 0.4907472 -0.07512579 
-0.10617078 -0.42966536 0.11590177 
-0.28071672 -0.126325 -0.2189482 
0.123523735 0.056936674 -0.25566053 
0.13416901 -0.055036135 -0.0184849 
0.00974403 -0.33980712 -0.035326134 
-0.16224958 0.4146231 0.17377673 
-0.16212666 0.42212448 0.17045338 
0.09621054 -0.39904216 -0.19897442 
-0.16713935 -0.27248627 0.16744184 
-0.04959144 0.0002616164 0.22243303 
0.062384855 -0.076484814 -0.27817512 
-0.09915439 -0.4362687 0.16030724 
-0.3572691 0.26266056 -0.18636867 
0.029334957 0.16595912 -0.30636045 
0.07900759 0.15055008 -0.28334302 
-0.32707348 -0.39355093 0.0799565 
0.026979607 0.48243684 0.13520369 
0.10131709 0.11676776 0.047152556 
-0.37203822 0.19422215 -0.22099322 
0.031580452 -0.21258727 0.2057223 
-0.05697366 0.35316584 -0.2978386 
-0.01093267 0.28944492 -0.26349086 
-0.2083995 0.046988666 0.03329665 
-0.062112387 -0.03720847 0.4040254 
-0.22257003 0.24456543 0.087880105 
0.03318107 0.11801364 0.21314886 
0.1893057 -0.22599354 -0.14675707 
0.13751465 0.27790698 -0.32308644 
-0.012771212 0.17265509 -0.31555855 
-0.1535606 0.45056152 0.005024449 
-0.17162016 -0.4623711 -0.016745944 
-0.07029612 0.33527136 -0.2439499 
-0.03859633 0.4792585 -0.15818895 
-0.0660762 0.31402794 -0.24729654 
-0.20499595 0.36358467 0.09227873 
-0.14082775 0.31712332 0.2813877 
-0.24624461 0.32572493 0.010673485 
-0.31648976 0.07786298 -0.17600593 
-0.081135884 0.31194502 0.43095952 
-0.19109474 0.4233856 -0.0023434712 
-0.1278869 0.45775992 -0.0027965473 
-0.055021074 0.49740353 0.06315723 
0.08036788 0.000115968425 0.10755869 
-0.010222262 -0.1135393 0.33622587 
0.13646866 -0.07537663 -0.021643456 
-0.0930546 0.091024786 0.13303515 
-0.08334807 -0.22460224 -0.108521014 
0.1590372 -0.34517306 -0.26528907 
-0.17994288 0.40537876 0.3139647 
0.15994722 0.048544597 -0.2290682 
-0.035447404 0.3368008 0.3479919 
-0.20093442 0.41911638 -0.010134155 
0.013738257 -0.36253273 0.005058504 
-0.07308888 0.49148142 0.27838108 
0.03194775 0.48182446 -0.073422186 
-0.04267852 0.49545783 -0.012474915 
-0.20509724 -0.19650114 -0.14844857 
-0.12256366 -0.18430093 -0.18098733 
-0.24171218 -0.41762376 0.28141734 
-0.11167672 0.25036743 0.2539429 
-0.24569225 -0.36758325 0.17320943 
-0.07113216 0.08442153 -0.33609742 
-0.07331818 0.39947113 0.3969105 
0.122058466 0.48801625 -0.0463658 
-0.04860587 0.43325588 -0.28284925 
0.025110532 0.49476936 0.10545459 
-0.06657558 0.49521002 0.14003193 
0.0751888 0.4742453 0.02904691 
-0.019493328 0.11146279 -0.32788247 
-0.19388759 0.41923243 0.06573951 
0.01132766 -0.24885838 -0.19466111 
0.093212165 0.2757826 -0.22322802 
0.19018102 0.2340651 -0.16378187 
-0.079203285 -0.23040311 -0.13678774 
-0.24396986 -0.05633103 -0.08867255 
-0.14420252 -0.025967892 0.058980756 
-0.34204265 0.2102253 -0.1626925 
0.062340956 0.37290722 0.11980228 
-0.17099811 0.3442717 0.31577724 
-0.18249029 -0.24517737 -0.007598959 
-0.12056385 0.4945429 0.16440354 
0.00015430253 0.13721724 0.31276485 
0.08205978 0.47313443 0.03363662 
-0.015448011 0.24250643 0.3354471 
0.06528337 0.10272624 0.14035793 
-0.078396164 0.4982415 0.09185356 
-0.29512277 0.25319168 -0.16295993 
-0.015798332 -0.025746495 0.3374041 
0.16428602 -0.4131635 -0.07184659 
-0.09419174 0.4556143 0.34016535 
0.11286229 0.21754009 0.0119589595 
-0.08844859 0.26806867 0.4366105 
0.11529932 0.31422204 -0.0022318084 
-0.23886725 0.33658177 -0.09915337 
-0.17089604 0.40309992 0.14698909 
-0.12893008 -0.45555976 0.17348978 
-0.0001223242 -0.36354393 0.06524585 
-0.14839755 0.24113472 0.22184734 
0.0073863203 -0.10923222 0.29575658 
-0.24733731 -0.26108718 0.015667424 
-0.13289943 -0.40033314 0.2879774 
-0.059972513 0.10270884 0.15871291 
-0.22750382 0.17049895 0.055837255 
0.059981387 0.37312996 0.12561676 
-0.21848592 0.13248411 0.17009431 
0.16177393 -0.28418455 -0.26469773 
-0.1206568 -0.15310529 0.19121249 
-0.079132795 0.10334121 0.18874247 
-0.13157317 0.4795328 0.24597438 
-0.18138184 0.30852312 0.34260347 
0.07177522 -0.46815652 -0.059960816 
-0.08427245 -0.0201475 0.31175518 
-0.19350679 -0.4033016 -0.04042229 
-0.04393916 0.47839335 -0.16086616 
0.04194261 0.47177377 -0.030611383 
0.18456514 0.3558049 -0.15704568 
-0.20906352 0.05099206 0.034096237 
-0.10743183 -0.44265288 0.15726656 
0.11662002 0.10204721 0.0109071545 
-0.2462668 0.16830991 0.056924246 
-0.020657912 0.48408842 -0.1300069 
-0.13122115 0.001955473 0.35547307 
0.053707518 -0.07522301 0.17457503 
0.012994328 -0.28477103 0.121907316 
0.10128968 -0.29137886 -0.11452376 
-0.1182217 0.21612252 0.30863246 
0.030053748 0.1000642 0.22565101 
0.015609679 -0.26360077 -0.16939616 
-0.17232698 0.36365464 0.30574125 
-0.10027481 -0.36366454 -0.053058777 
-0.23051879 0.029077325 0.010029211 
0.045444004 -0.105366684 0.19685698 
-0.04749563 -0.037993737 0.11731014 
-0.08601116 0.077722214 0.21646863 
-0.19178994 -0.15756567 0.09582471 
0.15875164 -0.29698867 -0.036382686 
-0.16097163 -0.42841402 -0.057958264 
-0.17477311 0.4153455 0.30025503 
-0.3007812 0.13892189 -0.08303345 
0.07595697 0.46174565 -0.22165607 
0.09246884 -0.304243 0.07746677 
0.16870847 0.21210925 -0.12993725 
-0.3052004 0.2817348 -0.10809988 
0.14355229 0.23014383 -0.28144854 
0.06356239 -0.301956 0.09292841 
-0.05212644 0.19047022 0.40303913 
-0.073605366 0.022914942 0.28431103 
-0.34120744 0.06692254 -0.20752627 
-0.18024176 -0.19117111 0.06913726 
-0.1277325 0.08430562 0.10117646 
0.075405724 -0.26233193 0.105057135 
-0.18779843 -0.47016868 0.14373659 
0.12764856 -0.46379483 0.024734668 
-0.124050155 0.048813917 0.33806682 
0.07144002 -0.24109977 0.11131568 
0.060618073 0.48354056 0.07496423 
-0.16379751 -0.42733774 -0.057145145 
0.0056249555 -0.2742174 -0.13309997 
-0.1725837 0.28755224 0.344988 
0.007931612 0.13767043 0.29206187 
0.15404578 0.297014 -0.07655262 
-0.07075488 0.5061349 0.14446649 
0.15878974 0.33670315 -0.34150898 
0.0757348 0.32355374 0.09355357 
-0.20876536 -0.3223199 -0.05219732 
0.048063915 -0.111901715 0.1911047 
-0.11990806 -0.18579838 -0.06866416 
-0.11835463 0.2847456 0.20084554 
0.011076727 0.46935064 -0.1776172 
-0.045274306 -0.17802846 0.3115536 
0.027509257 0.4480915 0.19354895 
-0.04810684 0.30830085 -0.25366265 
-0.098659314 -0.03420726 -0.3182882 
-0.048374664 0.4952902 0.010788828 
-0.10585391 0.39570385 -0.23285244 
-0.06595442 -0.09542936 0.13916159 
0.13569309 0.45694938 -0.071299344 
0.20177981 0.274981 -0.319303 
-0.16375163 0.19768478 0.22200014 
-0.07876568 -0.36317772 0.13381016 
0.14015211 -0.28687954 -0.26508006 
-0.15641105 0.42236662 0.3374247 
0.04614716 0.44117475 0.15088907 
0.073956914 -0.35532412 -0.19651423 
-0.036438998 0.42362046 -0.29119933 
-0.26313242 -0.12057357 -0.2352382 
-0.061287284 -0.0007943842 0.39830357 
0.0040110606 -0.25121427 0.12855186 
-0.17758901 0.12222803 0.3541202 
-0.124897495 -0.41397563 0.27540746 
0.103884004 0.06788992 0.046981268 
0.06659921 0.096768044 0.13621764 
-0.24524981 0.4322753 -0.010335623 
-0.13753162 0.25496897 0.22147487 
0.05511454 0.18186636 0.1564193 
0.08068749 -0.18472332 -0.23573758 
-0.11528503 -0.18257087 -0.20817648 
0.05585128 -0.17468739 0.1832583 
-0.18528241 0.33251277 0.36022127 
-0.09629879 0.25678438 0.28792274 
0.1488941 0.1676517 -0.07412033 
0.10157535 -0.29276586 0.07835017 
0.09207175 0.031561892 0.07670793 
-0.19552286 -0.12843288 -0.106511824 
-0.27430758 0.25389504 -0.020816898 
0.15229793 -0.44192177 -0.066045575 
-0.07681291 0.11683784 0.1519535 
0.15248843 0.32701978 -0.3368997 
0.094829984 0.49972543 -0.15335387 
0.05165284 -0.20321073 0.11806827 
-0.22878945 -0.14887856 0.13727766 
-0.15656643 0.30908287 0.40232867 
-0.10302917 -0.3076974 0.15209913 
0.04377661 0.25725904 -0.26573962 
0.015493567 -0.058520325 0.16793516 
-0.024979299 0.49890015 0.056703057 
-0.014792989 -0.28498796 -0.083114885 
-0.0015401846 0.34782514 -0.25684974 
-0.2996654 0.13926846 -0.22880147 
-0.016159026 0.4991164 0.065109566 
0.14657177 -0.2288003 -0.028633144 
-0.27452233 -0.07449201 -0.20648697 
-0.17924452 0.3505238 -0.16300194 
0.18894127 0.23228295 -0.1672909 
0.061380137 -0.44779944 -0.06872724 
0.09729778 -0.29065198 -0.12447518 
-0.22872677 0.34932914 -0.09222763 
-0.20842728 -0.116933666 -0.06664845 
-0.013696852 0.4824248 -0.13534985 
-0.25014678 0.054655924 -0.0020078397 
0.014265489 0.18333548 0.26875192 
0.00035301023 -0.054753557 0.30354264 
-0.17624387 0.41494632 0.30278975 
-0.093133405 -0.45101827 0.20371063 
-0.26004344 0.15856437 0.12510172 
0.035316907 -0.075120494 0.22628775 
0.18667547 0.24888241 -0.1515455 
-0.30134097 0.19862187 -0.08395378 
-0.2713944 0.032198578 -0.044459056 
0.19138403 0.22162387 -0.29127204 
0.014591022 -0.040359158 0.2676163 
-0.33869132 0.02131988 -0.24809605 
0.23117469 0.2453309 -0.29312438 
-0.1516131 -0.4832093 0.16434044 
-0.006980794 0.4261975 0.27763787 
-0.27145022 0.30173993 -0.084808044 
-0.1350063 -0.19170278 0.20470034 
0.08077619 -0.32606122 -0.15971912 
-0.09111671 -0.16913968 0.31756905 
0.031981755 -0.33214107 -0.03913084 
-0.30304953 -0.41104773 -0.04661201 
0.061939392 0.14172782 0.14568852 
0.120882735 0.3978289 -0.25844982 
-0.1968643 0.45346588 0.26109466 
-0.024539646 0.11324881 0.34600377 
-0.02448212 -0.019415904 0.36092266 
0.097806476 -0.4596328 -0.09399659 
-0.29611742 0.3161937 -0.14422521 
-0.299012 -0.09089966 -0.22622092 
-0.12598622 0.05379519 0.09419602 
-0.08740033 0.050703645 0.19174339 
0.043684836 -0.36524817 0.04934459 
-0.10811008 -0.2479028 -0.039644826 
0.0934008 0.04229428 0.07198121 
-0.172747 0.25418115 -0.2700111 
0.032689583 0.4591863 -0.13097419 
-0.10403626 0.19221875 -0.3143069 
-0.12264765 -0.21217115 -0.10902445 
-0.043553617 -0.0032661504 0.1567846 
0.15389001 -0.3983336 -0.037536796 
0.07646306 0.4947632 -0.107583165 
-0.11066957 0.29683012 0.27474108 
-0.04833321 0.50639296 0.14345893 
0.09447454 -0.4316856 -0.1313699 
0.10003405 -0.46550772 -0.085560225 
0.16887201 -0.4155106 -0.18044169 
-0.0014014132 0.3392059 -0.23482795 
0.015323282 -0.27869904 -0.1284477 
0.08095428 -0.2993271 -0.091686666 
-0.25041 0.33478534 -0.028627487 
-0.14812092 0.35399187 0.20818143 
-0.19942893 -0.16295946 -0.14843753 
-0.25180104 0.061094802 -0.0006756456 
0.005341379 0.3471509 0.2571577 
0.10148509 0.1704091 0.04286557 
-0.07437836 0.46443465 -0.13373245 
-0.09540156 -0.3810595 0.22376563 
-0.033590786 0.49688494 0.029875487 
-0.2931821 -0.3983546 0.09450153 
0.039937742 -0.25398824 -0.21572353 
-0.156723 0.2965218 -0.24059302 
0.048265938 -0.014112216 0.18584135 
0.10148052 0.16890365 0.043232314 
-0.008967917 0.07736395 0.31411055 
-0.13538998 -0.1731479 -0.047463894 
-0.17269717 -0.00706623 -0.3070737 
-0.08273488 0.040429655 0.26454574 
-0.2587078 -0.21546613 0.06905657 
-0.15929434 0.27314866 0.32796922 
-0.20091444 0.44728062 0.24487399 
-0.14008643 0.29168716 0.19364958 
0.09935278 -0.49300146 0.013372972 
0.000968825 -0.028644936 0.18497592 
-0.16274217 -0.45942423 -0.031017324 
-0.11899112 0.48834512 0.10820835 
0.1564912 0.4339186 -0.22134736 
-0.07910655 -0.14227656 0.13358364 
-0.086069174 -0.1689326 0.30452058 
0.04429917 0.4478076 0.15464333 
0.0073874705 0.037531137 -0.3173542 
0.11703436 -0.07501324 0.024326941 
0.18828323 0.38085762 -0.1971959 
-0.22092 0.24476224 0.072879694 
0.15229684 -0.19289906 -0.0509839 
0.11043676 -0.02676687 -0.25863847 
-0.3429748 -0.014156327 -0.24101451 
-0.0810428 0.059776284 0.26194313 
-0.19403374 -0.3677365 0.24105439 
-0.2829329 0.15680286 -0.019253373 
0.10494801 0.22600098 0.02978649 
-0.26261115 0.110838965 0.060195375 
-0.028716296 0.31284392 -0.2500385 
-0.076864086 0.25299314 -0.29066142 
-0.30394503 -0.4213771 0.06864619 
-0.0154951615 0.2576651 0.33656842 
-0.26226956 -0.07285215 -0.16308998 
-0.14082761 -0.037547525 0.36874703 
0.18558037 0.19035248 -0.21086216 
-0.13327052 -0.45861003 0.2941336 
-0.28714553 0.15893106 -0.030756505 
-0.0021400724 -0.103806324 0.31721884 
0.14874847 -0.023086602 -0.22755332 
0.15519457 0.0014987919 -0.07426203 
-0.10035823 -0.062351927 0.3352436 
-0.13484216 0.30752772 0.1930535 
0.18613715 -0.13242027 -0.17340417 
-0.20540456 0.36777124 -0.10004221 
-0.2111561 0.096657164 0.042725984 
0.113363475 0.1119253 0.017865777 
0.0053489604 0.30000395 0.2595453 
-0.138819 -0.17035818 -0.04438667 
-0.0784991 0.05154329 0.23301245 
-0.10968137 0.069359794 0.31109968 
-0.1074481 -0.14483504 0.066249445 
-0.1972494 -0.2299432 0.1922539 
-0.25162238 -0.37997386 0.27002022 
-0.24832158 -0.41911376 0.28291878 
0.16881716 -0.1670218 -0.0933795 
0.036730126 -0.2068189 -0.23435071 
-0.28157192 -0.38760743 -0.04923513 
-0.22290227 -0.22914697 0.02899855 
-0.1980892 -0.12763788 -0.08696714 
0.024500186 0.13438375 0.23175088 
0.13063939 0.19047296 -0.23490338 
-0.15741457 -0.45251074 0.3078593 
-0.10086415 -0.12455894 0.09522648 
-0.11663189 0.18892136 0.3068155 
-0.027948737 0.47635263 0.28996864 
-0.11139581 -0.16734868 0.018198324 
-0.066491134 -0.078164354 -0.3089835 
0.18759373 0.04111499 -0.20028111 
0.022867668 -0.07748206 0.25570762 
-0.30582544 -0.278957 0.0152178835 
0.15175407 -0.40399718 -0.034264777 
-0.2641025 -0.35676607 0.11879795 
-0.27023906 -0.030569213 -0.23824131 
-0.09280391 0.12528826 0.18967707 
-0.2541111 -0.43308207 0.27571586 
-0.011548187 0.5038859 0.15328926 
0.04364085 0.023219522 0.19943276 
-0.09523623 0.38615048 -0.27433142 
-0.09590954 0.2919147 0.21686512 
-0.09899452 0.45405573 -0.08208933 
-0.10314967 0.5013171 0.16031066 
0.03217572 0.46685374 0.17877972 
-0.16795601 -0.511102 0.20578891 
-0.14544842 0.3433731 0.26535845 
-0.081059106 -0.14234938 0.38767436 
-0.07888845 -0.25468203 0.17290947 
0.037696984 -0.4709628 0.0040845596 
0.061538316 -0.1402886 -0.25975096 
0.12908812 -0.46500203 -0.061544944 
-0.076555796 0.20184182 0.2908783 
-0.092208944 -0.13251881 0.19597106 
0.1108666 -0.4024932 -0.2108403 
-0.13400789 0.47375828 0.07008233 
-0.2865665 -0.42814246 0.050971694 
0.18504024 0.29410613 -0.3350599 
-0.20643832 0.3950682 -0.0374337 
0.10918133 0.28341794 -0.25570676 
-0.3398048 0.11977679 -0.23990883 
-0.11441942 0.39113468 0.39224872 
-0.12688708 0.17870241 0.2421468 
-0.33793324 -0.3454249 0.03981088 
0.18753332 -0.097264476 -0.14942215 
0.12281221 0.22241597 -0.013914799 
-0.25890514 -0.3290963 -0.043035135 
-0.11881434 0.26081568 0.238563 
-0.01865578 0.017321303 0.33945924 
-0.052114177 -0.023756908 0.18271746 
-0.1764878 0.40336633 -0.07681578 
0.101080835 -0.41478503 -0.1815642 
-0.32277566 0.32946673 -0.14524534 
0.008625391 0.49824145 0.16926679 
-0.17786638 0.35757005 0.34879678 
-0.117627755 0.330476 0.21950552 
-0.09420397 -0.1415592 0.10403673 
-0.25740758 0.073690444 -0.0009892738 
-0.028732143 0.5044972 0.12671606 
0.0861834 -0.29580256 -0.23412143 
-0.025335817 -0.26209864 -0.11121127 
-0.28841376 -0.023456996 -0.2520691 
-0.097844884 0.22732873 -0.30173922 
-0.3016602 -0.36931467 -0.03308356 
-0.029224854 0.21114583 0.37418866 
0.074314065 -0.39156732 -0.12441934 
-0.10761797 -0.43291482 0.12657715 
-0.12178806 0.07224459 0.36961085 
-0.21558446 -0.40257308 0.28131443 
-0.22675996 0.27800977 0.068545334 
-0.25842315 -0.0012497912 -0.054991808 
-0.17607461 -0.41350588 0.29634866 
-0.17512856 0.19445658 -0.2992117 
-0.030827353 0.50732726 0.19602534 
-0.107214965 -0.1728276 0.03867495 
-0.09573703 -0.20815407 -0.10001502 
-0.23105219 -0.20705128 0.19528112 
-0.19489309 0.42850557 0.29274273 
0.14028975 -0.2541176 -0.25564277 
-0.06421524 -0.09072942 0.13764523 
0.108999595 0.38698944 0.0058263005 
0.0898379 0.35461372 0.05530759 
-0.29332522 0.2622443 -0.08800891 
-0.2208801 0.11077805 0.14945675 
0.19513312 -0.269574 -0.15394558 
-0.030979201 -0.13823724 -0.27567455 
-0.12645575 -0.1610297 0.002915912 
-0.1296478 0.103837974 0.10587975 
-0.21057704 -0.4312022 0.014357019 
-0.13705443 -0.47264862 0.010805847 
-0.25442046 0.33837482 -0.09305811 
0.030269949 -0.4242271 0.014619742 
-0.021398567 0.23638129 0.3538708 
-0.022419525 -0.099019736 -0.2946397 
0.0076085823 -0.286948 -0.082889006 
-0.007083064 -0.23682016 0.16736957 
0.049152773 0.09532928 0.17976682 
0.18055668 -0.32144538 -0.08420155 
0.11864648 0.25249273 -0.25473282 
-0.09033095 0.45046017 -0.18769866 
0.031686746 0.4091459 0.18958645 
0.11815076 -0.03042129 0.019840451 
-0.14311107 -0.4136109 0.2895819 
-0.03793213 -0.02891908 0.18155536 
-0.012121942 0.43158656 0.2889634 
-0.12008533 -0.1738796 -0.012243239 
-0.0054247836 0.39269158 0.27631357 
-0.2678773 0.083698474 -0.0097349575 
0.18843244 -0.0014590113 -0.16004474 
0.10699907 -0.0032387467 0.04495746 
-0.21116863 -0.14663602 -0.19638874 
0.19147384 -0.031401694 -0.1683723 
-0.006656815 0.16658415 0.32199696 
-0.25690702 -0.25440165 0.16381021 
-0.06565784 0.20342104 -0.31264177 
-0.063391596 0.48412555 -0.066014916 
-0.17483902 0.2886208 0.35300803 
-0.2557738 -0.37871176 0.16415368 
-0.19580352 -0.0992886 -0.24690525 
0.12959696 -0.46528375 -0.046076514 
-0.2704918 -0.25712165 0.04956735 
-0.17050382 -0.16024831 0.13191006 
0.09418651 0.23443545 0.054291412 
-0.024630245 0.4646825 -0.18588386 
-0.2363803 0.08914609 0.02424567 
0.09248729 0.0016528189 0.08013051 
0.13460118 -0.4017011 -0.22451013 
-0.19414026 -0.35007107 0.20784096 
-0.072795965 0.16050173 0.40874788 
-0.13719702 0.44116732 0.3346661 
-0.3360337 -0.32364458 0.0904218 
-0.14382187 -0.16967587 -0.16956061 
-0.118344635 -0.3717943 0.17274359 
0.078104936 -0.37788257 -0.18679734 
-0.12724242 0.07797585 -0.33186755 
-0.18265624 -0.5059005 0.25363165 
-0.31132278 0.051417645 -0.18555915 
0.041326415 0.109432794 -0.30836713 
-0.2282879 0.39434317 -0.04727678 
-0.055375315 0.29364067 -0.26591972 
-0.13928331 -0.0590579 0.04911411 
-0.2928824 0.33541176 -0.087249324 
0.18595989 -0.19416776 -0.13903709 
-0.38566256 0.22881801 -0.18882245 
-0.002098414 -0.068819135 0.31532577 
-0.12521547 -0.17064513 -0.014350673 
-0.097387165 0.16975781 0.30053648 
-0.23541994 0.20493215 0.14095032 
-0.18447207 0.41520822 0.27732903 
-0.14091642 0.26050055 0.3125344 
-0.16278045 0.34427723 -0.18071295 
0.19890271 0.19129007 -0.21807714 
0.039787218 -0.42264792 -0.020934045 
-0.12494401 0.3418436 -0.20092143 
0.04256129 0.11448241 0.19539486 
-0.18251526 -0.4455931 0.059978817 
-0.21932994 0.3720957 0.049674038 
-0.23774116 -0.40265006 0.2730713 
-0.3013518 -0.08795518 -0.2487659 
-0.17222907 -0.51128316 0.20225875 
0.123676136 -0.21362904 0.020743694 
0.06531987 0.023272766 0.14240097 
-0.14439076 0.07870322 -0.3281353 
-0.12961243 0.22006257 0.41118324 
-0.24815042 0.22314097 0.03079026 
-0.107445836 -0.05289995 0.07583921 
-0.090474755 0.35002783 -0.2215037 
0.09613507 -0.32562962 -0.07216545 
0.02234988 -0.2221309 0.17416587 
0.054262243 0.026543906 0.1700385 
0.048487183 0.37969556 0.15265334 
0.11320641 0.33595467 -0.00031903494 
-0.06325034 0.47394872 0.30194598 
0.17429519 -0.400428 -0.079998024 
-0.24048963 -0.4918821 0.21555553 
-0.025967197 0.1987575 0.3686021 
-0.12011081 -0.3808659 0.17042656 
-0.078357086 0.26990035 -0.2803216 
-0.25097406 -0.2823988 0.13273917 
-0.18139349 0.43045142 0.0005468797 
-0.21092163 -0.09622916 -0.24087204 
0.07310662 -0.37900314 -0.14538528 
0.1625975 -0.16365752 -0.077295244 
-0.08878802 0.46517992 0.32890916 
-0.0012478584 0.22520791 -0.29773566 
0.13142751 0.41255367 -0.059431896 
0.23371895 0.3071679 -0.3063001 
-0.07572654 0.024470696 0.2993273 
-0.22581016 -0.118238024 -0.1595443 
-0.02752731 -0.37807798 0.02231953 
-0.29396048 0.040931094 -0.13233207 
-0.021205232 0.23747988 0.3537422 
0.009836589 -0.11403299 -0.28011224 
0.19213364 0.1422416 -0.18233229 
-0.15532619 0.41172814 -0.08431855 
0.116036914 -0.03470549 0.02459685 
-0.2465713 0.33748028 -0.08956016 
0.17896512 0.16685921 -0.15120603 
-0.38331926 0.124972165 -0.25306988 
0.016500076 0.37539962 0.22903459 
0.098474845 -0.1163788 0.07383625 
-0.0054183095 -0.2920926 -0.07989051 
0.022802232 -0.03300167 0.24848971 
-0.23216908 0.08648571 -0.28306067 
-0.047214203 0.49835414 0.19643594 
0.19678669 -0.28768152 -0.12315111 
-0.19129021 0.43474585 0.2545534 
-0.1736963 0.0378881 -0.31608704 
-0.20370802 0.33998972 0.344871 
-0.040936727 -0.2296952 0.21605681 
0.12154359 0.44471577 -0.029515605 
-0.088091046 0.26219052 0.27748942 
0.20156698 0.3321511 -0.22496992 
-0.012219775 -0.268878 -0.1034613 
-0.17443977 -0.15155794 0.06284826 
-0.07203862 0.20000342 0.42809018 
0.17021897 -0.25468212 -0.06485927 
-0.1453936 0.24681477 0.32002404 
-0.08517082 0.04349224 0.123003304 
-0.023638902 0.5037825 0.21181007 
0.042342275 -0.007445449 0.19827184 
-0.19365495 0.008258648 0.030726222 
-0.23321125 -0.38706994 0.25097692 
-0.1997185 0.21722545 0.38779384 
0.11327031 0.23622824 -0.24304302 
-0.16656813 0.30169764 0.39221472 
-0.10338876 -0.3674763 -0.057021677 
-0.016437499 -0.17951962 0.24769892 
0.20980051 -0.3038379 -0.18951777 
-0.17613469 0.036931444 0.053798947 
0.08715428 0.44696152 -0.055677302 
-0.23311788 -0.11628801 -0.18135986 
0.123675294 -0.33997625 0.028821912 
-0.07249827 -0.17835356 0.3125849 
0.008266148 -0.27241004 -0.14412254 
-0.058663968 0.47604486 -0.15461697 
0.14111492 0.2118792 -0.05984868 
-0.36523566 0.23817936 -0.21248975 
0.17534794 0.070937626 -0.13180502 
0.12220239 0.30953044 -0.020535031 
-0.024233945 -0.018556835 0.16776276 
-0.053049568 -0.16228405 -0.26201984 
-0.32130244 0.26256752 -0.16775379 
-0.015207361 0.008706221 -0.3203071 
-0.20871527 -0.3712347 0.26503313 
0.026476499 0.21914382 0.23790617 
-0.31688413 0.35572827 -0.10836476 
-0.33642805 0.34276122 -0.110326335 
-0.12659374 0.25891548 0.23055583 
-0.0446532 0.01164269 0.13227545 
0.1967111 0.3749656 -0.2186706 
-0.20738202 0.1435645 -0.29663816 
0.09251092 -0.200479 0.09719562 
0.08024662 -0.30753103 -0.16043866 
-0.019475326 0.37017116 0.3106061 
-0.07263994 -0.1644296 0.2695499 
-0.31492227 -0.41679278 0.077426 
-0.01544929 -0.29565245 -0.07599731 
-0.31238216 -0.38788193 -0.034792904 
-0.18074377 -0.14727975 -0.18303855 
0.11762134 0.39079973 -0.018895784 
-0.13881236 0.14386891 0.3782448 
0.1675743 -0.3712463 -0.05241699 
0.026308892 0.15332463 0.2476871 
-0.11880685 -0.17128007 0.0782656 
0.09071236 0.16829702 0.06911706 
-0.24675104 0.19504447 0.11999293 
-0.11356132 -0.004890674 0.09020029 
-0.09590343 0.44201827 -0.10339576 
-0.12686768 -0.3736798 0.19411394 
-0.053668104 0.46365336 0.32393637 
0.006825379 -0.04879439 0.28846955 
-0.120034486 -0.06542809 0.36697602 
0.004309116 -0.10979347 -0.28394705 
-0.2140682 -0.072473295 -0.03765375 
0.045128588 -0.40151805 -0.054050494 
-0.26824844 0.06826889 -0.25938055 
-0.23449938 -0.41180587 -0.010053334 
-0.15703778 -0.461882 -0.030554662 
-0.13340469 0.1052897 0.32583222 
0.022929652 0.49551365 0.17070176 
-0.11545846 0.08159013 0.31258535 
0.13383006 -0.09015951 -0.21964303 
0.03499821 0.21746624 0.19927792 
-0.08275097 0.5064788 0.15845355 
-0.13272232 0.271712 -0.26995555 
-0.21141794 0.21214005 -0.27045783 
0.039941505 0.4909343 0.081082374 
0.18768954 -0.40766236 -0.17360532 
0.043258507 0.45305663 0.15656196 
-0.2771419 -0.26468125 0.03701156 
0.14225785 0.32525337 -0.30139166 
0.15227635 0.22949001 -0.2694575 
-0.1806011 0.45928416 0.18396553 
-0.05091236 -0.08274615 0.14372706 
0.049116045 -0.046113607 0.18617323 
-0.34735283 0.3081924 -0.16229483 
-0.3986933 0.11991701 -0.25783077 
-0.087953195 -0.084512055 0.10329056 
-0.24398714 -0.27824345 0.14658263 
-0.2697511 -0.04478144 -0.14448999 
0.06765301 -0.085043244 -0.27344325 
0.080277525 -0.40348583 -0.14573994 
0.033639222 0.4819505 0.12369644 
-0.07049205 0.41808203 -0.2834982 
-0.24706644 0.24857491 0.038970333 
0.102563806 0.4727298 -0.039679598 
-0.16475289 -0.45559704 0.10835224 
-0.25819862 0.13369665 0.05975772 
-0.15212217 -0.3825771 0.26529932 
0.10723547 0.42201033 0.007980726 
0.106998675 -0.024088295 0.04506361 
-0.025679808 -0.17130643 0.32445347 
0.1511664 0.11677389 -0.2375147 
-0.028823582 -0.29062143 0.13658369 
0.11463183 -0.08357618 0.03146056 
-0.031041356 -0.09796311 0.20201856 
-0.13275333 0.17369473 0.31678233 
-0.09702658 0.3775188 0.40837327 
0.032421526 0.44751737 0.18384258 
-0.15695393 -0.06341306 0.028450122 
0.2036922 0.21266793 -0.21947685 
0.09674594 -0.34128037 -0.24269184 
0.14815204 0.42584628 -0.1023007 
0.21172106 -0.25655448 -0.20444809 
0.09699204 -0.29295865 -0.24504234 
-0.23934016 0.2592864 -0.21624798 
-0.20940168 -0.051467314 -0.019862307 
-0.023486806 0.50665283 0.19251972 
-0.102976546 -0.16635555 0.34739545 
-0.19378217 -0.4755957 0.14865834 
0.10331935 0.083096914 -0.27224407 
0.15292643 0.029041614 -0.0719691 
-0.101081215 -0.18616937 -0.22159217 
0.023030108 0.39861938 0.21272357 
-0.06560043 -0.3376581 -0.045470707 
-0.17486936 -0.4655097 0.2998894 
-0.13607734 -0.21197881 0.041806743 
0.18094192 0.22086683 -0.14761536 
0.09056635 0.43534666 -0.23694673 
0.044630762 -0.40280178 -0.03227072 
0.09720841 0.03386584 -0.27469018 
-0.011238482 -0.090727344 0.21077073 
0.0947398 -0.18517661 0.09089712 
0.04154617 0.19666867 0.18433516 
0.12880601 0.16939126 -0.24584089 
0.08933671 -0.22951406 0.104930826 
-0.31369236 0.13890906 -0.21731633 
0.03901707 -0.347876 0.057872668 
0.022329949 0.48577213 0.06606093 
-0.1749009 -0.3776498 0.28308687 
-0.20890373 -0.31542397 0.17006877 
0.1969289 0.081891574 -0.18699564 
-0.2758335 0.12344804 0.09457463 
-0.25118217 -0.3275328 0.12668628 
-0.26126528 -0.43344268 0.25363463 
-0.18685918 0.3242137 0.13588254 
-0.075307295 -0.033301424 0.25282413 
0.15982221 0.29162502 -0.3182808 
0.1402203 0.42181855 -0.081032574 
-0.14678898 0.23821926 0.40540224 
0.07276786 -0.49442813 -0.019790921 
-0.102392204 -0.24679284 -0.040702626 
-0.3573761 0.18383726 -0.18535095 
-0.059937183 0.33436868 -0.2786915 
0.0108080525 0.49724424 0.13339876 
0.116459176 0.50307816 -0.08325182 
-0.046160135 -0.119079135 0.39660937 
-0.19666898 -0.4405115 0.06790783 
0.08015658 -0.34198374 -0.22334817 
-0.12396513 -0.2573201 -0.031993628 
-0.21838999 -0.10537592 -0.08035559 
-0.27141452 0.28063342 -0.15419576 
0.11499086 -0.16167398 -0.22761786 
-0.10606962 0.32100827 -0.22794563 
-0.3014921 0.1601978 -0.084515005 
-0.19011998 -0.14930452 0.10599924 
-0.101275 0.0727625 0.38084063 
-0.08950836 0.48298013 0.007837891 
-0.29858315 -0.10898984 -0.22661528 
-0.10806286 0.21032043 0.30364916 
0.09771824 -0.4921384 -0.029431276 
-0.28821692 0.08936632 -0.045814056 
-0.032564312 0.5007406 0.08379439 
0.10326221 0.042622924 0.049133364 
0.12431026 0.37775132 -0.030347157 
0.04857751 -0.14039016 0.19731039 
-0.11107884 0.3318167 0.23604335 
0.036018714 0.22078437 0.19682446 
-0.03067791 -0.2931659 -0.069407694 
0.19385822 0.25238523 -0.19830602 
-0.13984439 0.026230844 0.34678593 
-0.21708308 0.278401 0.11047002 
-0.34516245 0.0009915804 -0.23979996 
-0.28241596 0.109310254 -0.02462769 
-0.19726746 0.27345276 0.35794228 
-0.08266555 0.41422954 0.3842729 
-0.17057677 0.089408986 0.06976744 
0.19009864 0.25826368 -0.16028786 
-0.09855304 -0.19089831 -0.014500313 
-0.23294868 0.019986652 -0.27757257 
-0.27795032 -0.29794973 -0.017699013 
0.034860246 -0.44444028 0.04508912 
-0.10517738 -0.19184445 -0.0008581567 
-0.2412645 0.046054192 -0.2753154 
0.19700393 -0.40466306 -0.154899 
-0.022648243 0.07602024 0.3435265 
-0.015043946 0.48379326 0.2615971 
-0.02909627 0.32367986 -0.23957221 
0.06458262 -0.46913293 -0.021518428 
0.08989646 -0.19525982 0.104297645 
-0.2605373 -0.20229767 0.17066158 
-0.25385928 0.064603195 -0.26807925 
-0.23778254 -0.4195589 -0.0018956363 
0.07533558 -0.22285616 -0.23755252 
0.12023646 0.25482368 -0.270671 
-0.27278748 -0.032007992 -0.13784987 
-0.116459735 0.24826773 0.42261434 
-0.25730273 0.109226234 0.010491257 
-0.056381553 -0.26907462 0.14365594 
-0.22632529 0.41126725 0.028662367 
0.1397176 -0.021510065 -0.034605324 
-0.26929736 0.056603078 -0.023792962 
0.13796368 0.10738548 -0.2476978 
0.11600917 -0.13961615 0.03249874 
-0.057978798 -0.15259752 0.38976258 
-0.18708129 -0.45945367 0.12617023 
-0.24785927 0.33103722 -0.09425901 
-0.02035385 0.23818296 0.35203543 
-0.0061855484 0.5028292 0.17109211 
-0.3026106 0.014766049 -0.21340765 
-0.05566261 0.06302738 -0.33337882 
-0.042186454 0.46240196 -0.2052377 
0.11530666 -0.017594185 0.026464118 
-0.06316897 -0.08454814 0.1337701 
-1.4776917e-05 -0.1389241 0.31359753 
-0.28523812 0.22042154 -0.04162406 
-0.2231363 0.08036969 -0.2902386 
-0.03474872 0.052524284 -0.32890853 
-0.2208275 -0.5187873 0.1888484 
0.01345054 0.15447456 0.2754695 
-0.30273414 -0.42282864 0.01981493 
-0.06423774 -0.17235367 -0.25259504 
-0.079288416 0.009023485 0.20662066 
0.04032237 -0.22106032 -0.2286587 
-0.0049255555 0.45818308 0.2694918 
-0.20064522 0.40960908 -0.015345561 
-0.03737583 0.39548948 0.3513028 
-0.10208498 0.24015583 0.4353988 
-0.17869642 0.15969603 0.36274013 
0.11252237 0.26736316 -0.2723902 
-0.085469335 -0.14716311 0.22451559 
-0.27568188 -0.36510637 0.10894633 
0.027119085 0.3649989 0.20682569 
-0.024185363 0.036702648 0.35089436 
-0.2266196 -0.4301843 0.054204978 
0.13107298 -0.07287359 -0.009166462 
0.20546313 -0.29740128 -0.17866059 
-0.10547872 -0.08800314 -0.30020145 
0.049114797 -0.32558516 0.08391226 
-0.1242675 0.49184617 0.16438343 
0.20055965 -0.28025204 -0.16573887 
0.07948841 0.2962421 -0.21935607 
-0.25808173 -0.29449692 -0.043059245 
-0.120860495 -0.25720683 0.16997291 
-0.12842956 -0.08343187 0.37430125 
-0.36052513 0.086398564 -0.21665384 
-0.14991626 -0.12474352 -0.24882542 
-0.2601096 0.28286842 0.0012825138 
0.028805379 0.06524312 0.23360705 
-0.014734867 -0.08678062 0.17001614 
0.17919073 -0.112928465 -0.123475604 
-0.285766 -0.097700745 -0.21533574 
-0.093497045 0.23884957 -0.29652035 
-0.34554294 -0.42643648 0.028280854 
0.043794714 -0.2071272 0.135335 
0.15317655 -0.015668087 -0.0673141 
-0.2332566 0.31027156 0.05891574 
-0.0145895425 0.2114618 0.3378819 
-0.052480668 0.007965387 0.11834539 
-0.13419423 -0.045263804 -0.30958372 
-0.10649419 -0.47718328 0.24832082 
0.09960109 0.45697618 -0.0036856558 
-0.21005782 -0.121136084 -0.12459885 
0.091625765 0.32805103 0.051783364 
0.109842874 -0.477816 -0.043547675 
-0.22271647 -0.39466003 0.28877574 
0.107280545 0.4828048 -0.06271422 
-0.20498034 -0.1787307 0.08843779 
0.02328045 0.33974272 0.21722342 
-0.26696667 0.0950163 -0.2586431 
-0.39547744 0.22987026 -0.22323447 
0.09469812 -0.4883989 0.01608674 
-0.34913725 -0.39937216 0.014582367 
0.012121797 0.46221602 0.22912927 
-0.06747088 -0.092890896 0.1358725 
-0.06250462 0.47410902 -0.12811609 
-0.16854864 0.08895317 -0.32147613 
-0.25966525 0.06723868 -0.26493928 
0.022692574 0.30981708 -0.23638204 
-0.30260536 -0.058271095 -0.23238367 
-0.20431161 -0.10649255 -0.23394297 
0.014722375 0.18372947 0.26771763 
-0.09400116 -0.13249758 0.18091662 
-0.1799688 0.2281475 -0.28127605 
-0.0950339 0.4131422 -0.25757477 
-0.20592725 0.31423223 0.34921044 
0.08165002 -0.35162485 -0.10100904 
-0.14867537 -0.084081404 0.029992549 
-0.3044996 0.019604392 -0.21614806 
0.19104676 0.13161184 -0.17878152 
0.17275865 -0.20899163 -0.09911197 
-0.20412463 -0.19817546 -0.14850847 
-0.007655552 -0.16515614 0.32137024 
-0.13372071 -0.344833 -0.05627078 
-0.13541141 -0.16490659 -0.01916863 
-0.14191754 -0.2052867 0.053571314 
-0.09032306 0.2883024 0.2715046 
-0.14735548 0.29188925 0.42275184 
-0.10676242 0.3256504 0.42817867 
-0.0037292433 -0.23511969 0.16170886 
-0.07380648 -0.12608908 0.29430372 
0.041886985 -0.38668367 0.036275357 
-0.16359997 0.11800417 -0.32138908 
-0.23193336 0.34328532 -0.09777786 
-0.17659381 0.2009693 0.20678906 
0.15031807 0.483449 -0.1718564 
-0.1494277 -0.23916371 0.18267463 
-0.13549483 -0.3045607 -0.051524773 
0.017474262 -0.044640575 0.26331887 
-0.075110584 0.22063473 -0.30625513 
-0.03003864 0.48028895 -0.15338573 
-0.1264166 -0.44575128 0.04002326 
-0.16592196 -0.35806355 -0.056839783 
-0.11339459 0.24936663 0.29510957 
-0.03956235 0.28342304 0.3641956 
-0.11995929 0.0060212533 0.08601024 
0.16380845 -0.21541856 -0.20288573 
-0.2766782 0.39703965 -0.031479675 
0.06614061 -0.03108689 0.14502887 
0.13145293 -0.48213157 -6.8134446e-05 
-0.25066903 -0.32650593 0.12673073 
0.18451875 -0.2875394 -0.09784178 
-0.15767017 -0.4403446 -0.052648906 
-0.21870078 -0.32770336 0.16796601 
-0.00947331 -0.15937693 0.33366695 
0.111659415 -0.044603355 0.036181327 
0.04687517 -0.35124004 0.002517552 
-0.2490962 -0.058269307 -0.24298699 
-0.25510594 0.16522785 0.13423705 
0.14992785 0.3930187 -0.27074498 
0.078523055 -0.42812768 0.062418304 
0.13272423 -0.46598276 -0.030122718 
-0.03301669 -0.08609456 0.30394757 
-0.1831125 0.26304758 0.17752637 
-0.020609282 0.015541743 0.34459805 
-0.22502723 -0.029984733 -0.023299025 
0.0070023923 0.49798885 0.05446191 
0.1169867 0.2221525 0.0013637982 
