-0.23816602 -0.428754 0.0082735745 
-0.17001991 -0.365227 0.09387029 
0.048755605 -0.16808686 -0.026466358 
-0.058643408 -0.1427913 -0.002220973 
0.27005997 0.5009328 -0.097932994 
0.17282924 0.090954795 0.096979745 
-0.007977756 0.05452212 0.0016461815 
-0.06662855 -0.27515915 0.106238574 
-0.083692685 -0.1817711 0.34465447 
0.08711766 -0.23364262 0.22309402 
-0.25327122 -0.4481554 -0.04360931 
0.28497764 0.2856973 -0.028642703 
0.026614849 0.06304947 -0.031739492 
0.10920139 -0.16766027 -0.005946384 
0.10797602 -0.22110122 0.083644405 
0.07696962 -0.21757627 0.11010214 
0.31134182 0.4729145 -0.05460912 
0.024676528 -0.12380257 -0.21488906 
0.23887499 0.4307645 -0.08062073 
-0.120408505 -0.2616246 0.20844977 
0.036707215 -0.10852004 0.28389072 
-0.20457877 -0.23964903 0.21391106 
0.39799282 0.39595306 0.058146216 
0.09835876 -0.20640478 0.22837408 
-0.23573393 -0.14753321 0.22704169 
-0.10106108 -0.1297775 0.052110564 
-0.15930401 -0.08082637 0.2643524 
-0.26253834 -0.45863593 -0.13851021 
-0.25307906 -0.18670224 0.20699139 
-0.10387288 -0.34732813 0.11719691 
-0.28636387 -0.23865534 0.12077621 
0.24458171 0.012620381 -0.14001793 
-0.03246603 -0.15012106 -0.02684364 
-0.20565075 -0.39621654 0.04669742 
0.10548511 -0.15088437 0.2112754 
-0.12513088 -0.37823433 0.075726494 
0.0059899995 -0.10135832 -0.093379915 
0.04632276 -0.12797622 0.2857172 
0.004260746 0.033571992 0.1276281 
0.1422496 -0.1660924 0.09148512 
0.087246805 0.12744772 -0.15148501 
0.02163577 -0.20320451 0.0268871 
-0.036998473 -0.29856405 0.30431783 
-0.15685529 -0.07236829 0.20944077 
0.002534091 -0.090667866 -0.089722544 
-0.16822343 -0.21729244 0.2092318 
0.065892145 -0.2637039 0.24036708 
-0.42028373 -0.35603172 0.026637254 
-0.07182133 -0.20161816 -0.39195758 
-0.1863815 -0.096757025 0.2585571 
0.0025230383 -0.07039458 0.28570938 
-0.1722215 -0.23780458 0.25704584 
-0.07470029 -0.35143253 0.10120006 
0.2656359 0.07412287 -0.11794275 
0.02091756 0.060892858 -0.029104667 
0.084718175 -0.08304394 -0.0946492 
0.011643558 0.08530396 -0.11675579 
0.34008223 0.30099887 -0.048566326 
-0.10239741 -0.10824748 0.0063899127 
-0.079071514 -0.004551722 0.013278452 
-0.37854198 -0.3346143 0.10508358 
-0.23292196 -0.18434538 0.14468414 
-0.120131634 -0.046132553 0.20959781 
-0.2614256 -0.43477237 -0.028979398 
0.28500226 0.32065997 0.00047686696 
-0.12546475 -0.37182525 0.041020796 
-0.07417797 -0.004875349 -0.31564775 
0.10024032 -0.20723648 0.07224244 
-0.0554324 -0.04589815 -0.044530347 
-0.49250117 -0.37095758 -0.029030269 
0.005895285 0.05780659 -0.18756707 
-0.061341558 -0.0255281 0.22248046 
-0.11184382 -0.01781638 0.08012585 
0.02473687 0.038581423 -0.09618619 
0.3467821 0.16725472 0.041033592 
0.15422325 0.007860305 0.10378538 
-0.3545753 -0.29527473 0.15218125 
-0.35694444 -0.33686903 0.107320204 
0.23077413 0.105664685 0.09809424 
0.30378932 0.4746193 -0.07428357 
0.3765914 0.41733116 -0.03924928 
0.09405383 0.079782136 0.077398464 
0.14352222 0.055362586 0.11014247 
0.12805879 -0.07838353 -0.07872447 
0.19498697 -0.008562731 -0.16220808 
0.3105033 0.47163042 -0.03613697 
0.35862777 0.28225997 -0.03340581 
0.3430551 0.1653681 0.01746443 
-0.31008223 -0.30394423 0.14249252 
-0.14115708 -0.16192156 0.3358089 
0.050489265 -0.18500899 -0.009529201 
-0.06362049 -0.17756481 0.05157431 
-0.029191984 -0.14972226 0.33692586 
0.2259997 -0.037294406 -0.009161117 
0.09609128 0.16366842 -0.10833302 
0.022005405 0.0036860853 0.14421473 
0.00017823093 0.057798486 -0.19143634 
-0.11825923 -0.06019439 0.07173145 
0.24943545 0.42298546 -0.038195666 
0.06136827 -0.19364524 0.30132163 
0.41156644 0.3805478 0.025569327 
-0.0011726553 0.037605405 0.11207059 
-0.41590837 -0.34773126 0.090007775 
0.31009632 0.13182735 0.02522019 
0.014390422 0.021585453 -0.25732458 
-0.11483937 -0.30950144 0.079521686 
0.23656759 0.19633046 -0.057175267 
0.25158435 0.12716872 0.095156215 
0.10078079 -0.17680871 0.2481293 
-0.1331526 -0.36311644 0.082877055 
0.1260627 -0.07627018 -0.19618236 
-0.10098127 -0.2542342 0.15654372 
0.03784777 -0.113597475 -0.20606922 
0.26622546 0.45681 -0.019225763 
-0.29033443 -0.22427322 0.1387715 
0.1736672 0.17347474 0.011927245 
-0.23688348 -0.1560186 0.18943864 
0.116793044 0.098359 -0.16980948 
0.0003900833 -0.31631306 0.18919042 
-0.048721608 -0.038510047 -0.054567087 
0.29093564 0.09236983 -0.06908783 
0.36103186 0.31758383 0.1022947 
0.012069219 -0.18880957 -0.3037098 
0.37991577 0.24273974 0.004481317 
0.23782678 0.051616985 -0.13754062 
-0.08149661 -0.18689252 0.3473831 
-0.2940477 -0.48472685 -0.107921526 
-0.25680822 -0.4905045 -0.107750624 
-0.0074793715 -0.22468838 -0.30261084 
-0.25060079 -0.4542808 -0.092009306 
-0.116093226 -0.100864366 0.089538686 
0.1630829 0.077467896 0.09269522 
0.24625775 0.42333302 -0.05422055 
0.041209385 0.06974594 0.034373492 
-0.08115177 -0.0139416475 -0.011128349 
0.058554284 -0.09758584 -0.111327745 
-0.056679904 -0.02484972 -0.3796491 
-0.06563062 -0.025096118 -0.41412735 
0.062379103 0.06549485 -0.18755545 
-0.4219606 -0.3378724 0.03503598 
-0.021851193 -0.31132656 0.12539528 
0.35526705 0.4214782 0.04430178 
-0.006512715 -0.3166398 0.16564742 
-0.16514245 -0.08507795 0.2032201 
-0.035972137 -0.2794203 0.09138927 
0.25527424 0.13825321 0.09662916 
0.17639354 -0.08609376 0.017538533 
-0.037471943 0.047522876 0.040280573 
-0.43802568 -0.395134 -0.026973926 
-0.07791711 -0.3255351 0.21797185 
-0.08159411 -0.1600346 0.04262422 
-0.058976565 0.022227813 -0.2867282 
-0.08754219 -0.054814477 0.2834123 
0.13157049 -0.07040319 0.13901632 
0.18040833 -0.017009463 0.08779563 
0.40865594 0.37448263 0.047321312 
0.02420687 -0.26414713 0.31742507 
0.0016053477 -0.029240407 0.23358816 
0.3905887 0.43740818 -0.013077052 
-0.15032202 -0.13433735 0.13602792 
0.09913214 0.002003454 0.1329142 
0.2503847 0.061948314 -0.11566861 
-0.01964074 -0.008227067 0.19172564 
0.4028688 0.425998 0.039813615 
-0.014805172 -0.25752243 0.32403153 
-0.052715525 0.0001819235 -0.25843447 
0.24996194 0.11726946 -0.10153096 
0.11639601 -0.20579089 0.09575728 
-0.091403924 -0.15687412 0.07245307 
0.14652465 0.12127961 -0.1442813 
0.3226734 0.4444363 0.021192512 
-0.43016407 -0.37847504 0.08381161 
-0.10545364 -0.04158253 0.21772276 
0.06649291 -0.19980164 0.00952689 
0.069361016 0.05909846 0.08557256 
0.054754235 -0.15945245 -0.26596043 
-0.07784547 -0.17402264 0.0648801 
0.20064603 -0.017523862 -0.1490744 
0.21154408 0.1740654 0.012510452 
0.17294547 -0.07918591 -0.04735377 
0.08529646 -0.07363723 -0.21331365 
0.055581875 -0.26006892 0.27433655 
-0.21506491 -0.44150782 0.015845343 
0.037144393 -0.21854466 0.3124328 
0.3574344 0.22172351 0.013884428 
-0.07821958 0.013492768 0.09446924 
0.061813153 0.11622542 -0.023927411 
-0.16012275 -0.2109089 0.33214083 
0.16216555 -0.086329296 -0.12037418 
0.12655598 -0.031814877 -0.17075704 
0.2006227 0.058710042 -0.15743624 
-0.09469595 -0.14426354 0.078673445 
0.13585375 -0.1374528 0.1712323 
-0.05081139 -0.21937507 0.34116104 
-0.19132324 -0.18981957 0.168746 
0.053080242 -0.284337 0.1724588 
0.01189731 0.009121609 0.15898804 
0.029753841 -0.30970383 0.27557987 
-0.09178276 -0.031926956 -0.4599576 
-0.094488345 -0.010037994 -0.3650037 
0.0053554717 -0.2157003 -0.3182206 
-0.2068764 -0.2233138 0.26802427 
0.1368316 0.045099385 0.10069463 
0.3025417 0.17209171 0.10512273 
0.29439712 0.31164655 -0.006738974 
-0.008923378 -0.16752543 -0.018173805 
0.006210191 0.053702746 -0.18724743 
0.05510307 0.055563 0.08668379 
0.025029385 0.05545951 -0.038565338 
-0.06734718 -0.13533783 0.33982491 
0.20115654 0.06232896 -0.15058674 
-0.14140552 -0.33757997 0.1152544 
-0.04164823 -0.21533166 -0.2958585 
0.23742075 0.43504605 -0.07962475 
0.24653533 0.18681356 -0.083342336 
0.1534736 0.09470507 0.0882492 
0.29088897 0.16921875 -0.06563637 
-0.09005994 -0.007965415 -0.45425498 
-0.18193509 -0.094414786 0.1593515 
0.041119326 -0.152621 0.30920875 
-0.10935002 -0.05032607 0.1450963 
0.006600798 0.04751564 -0.25869018 
-0.014998826 0.03654217 -0.28062725 
0.006949139 0.056994244 0.086893514 
-0.31734815 -0.31193414 0.15902433 
-0.13550764 -0.15131891 0.33244336 
0.068855844 0.14509524 -0.06632461 
-0.38158193 -0.3157343 0.07159913 
-0.097587705 -0.05116324 -0.46269915 
0.23251495 0.09094348 -0.12116148 
0.10394671 0.095701486 -0.18534644 
0.1688825 -0.112395786 0.081918985 
0.36937907 0.27629063 -0.0072080498 
-0.015478136 -0.23505586 0.34675744 
0.025980107 0.104506105 -0.16325614 
0.21232212 -0.006046355 -0.14642537 
0.15332688 -0.064100355 0.112537645 
0.08525129 -0.11628275 -0.1790937 
0.31928313 0.36227685 -0.10524029 
0.23164696 0.056027886 -0.14952193 
0.018917305 -0.2903224 0.2900756 
0.010733681 -0.073257126 -0.08879161 
0.24508874 -0.020361194 -0.11997534 
0.025817666 0.014468582 -0.11135024 
0.019188069 0.023752548 -0.10847597 
-0.09283193 -0.03515961 0.23454711 
-0.02713183 -0.28257483 0.10382581 
0.28111586 0.3651804 0.0075946874 
0.33259496 0.36938027 0.06651242 
-0.057538174 -0.23645873 -0.36312336 
-0.017543908 -0.2178312 -0.35568863 
0.264567 0.0025025825 -0.041885626 
-0.03379844 -0.0029178516 -0.3242354 
0.15840416 0.031420495 0.09923097 
-0.07133698 0.0027211818 -0.32597584 
0.07987301 0.01827827 -0.17238025 
0.086954504 -0.21821456 0.0752479 
-0.06544888 -0.15989186 0.34463027 
0.36407632 0.42438957 0.06351024 
-0.10946242 -0.018385896 -0.40696293 
0.072260864 -0.07134573 -0.1378862 
0.41683686 0.41952848 0.041037194 
0.30133945 0.17448647 -0.06275107 
-0.30147606 -0.29155388 0.118662365 
-0.051603176 -0.25370845 0.33501393 
0.2105588 0.014324938 0.067392685 
-0.23258325 -0.21842276 0.13883588 
-0.04949866 -0.208685 -0.39565077 
-0.13276252 -0.3821392 0.08033021 
0.07861556 -0.13278128 -0.21968378 
0.29909226 0.30988604 0.042233787 
-0.27651772 -0.47774878 -0.052562363 
-0.07141878 -0.18121237 0.07537511 
-0.24641068 -0.2532134 0.16309378 
-0.11528338 -0.053187877 0.119768016 
0.013077979 -0.03487791 0.25898027 
0.23511852 0.11983123 -0.10609702 
0.256709 0.4704473 -0.14264372 
0.029485365 -0.17546026 -0.24105188 
0.23600139 0.44208908 -0.08052698 
0.21074039 0.08183855 -0.12899257 
0.27373728 0.25316802 -0.0379525 
0.105494246 -0.02062218 -0.16768526 
-0.15460885 -0.06545829 0.17884986 
-0.26445365 -0.20768692 0.1926264 
0.016142929 0.003593597 -0.09405336 
0.25681677 0.035345342 -0.13060267 
0.18086039 -0.07408387 -0.0025182748 
0.3869329 0.37936974 -0.008791528 
-0.057832975 0.022670863 0.028631132 
0.19990882 0.17205837 -0.069199815 
-0.15267026 -0.22666982 0.3202118 
-0.047488887 0.031106843 0.10498153 
-0.082331926 -0.04417414 0.26182297 
-0.11058965 -0.24058452 0.15379862 
-0.027450781 0.047672678 0.06912058 
0.36379486 0.40887654 -0.069031514 
-0.0041966117 -0.17199886 -0.30394223 
-0.055062752 0.021732481 -0.28156966 
-0.044141445 -0.32307583 0.23235005 
0.3253629 0.27726084 -0.039346512 
0.35347098 0.3743298 0.08066086 
0.27331826 0.24841024 0.041928966 
-0.0839427 -0.3338016 0.14100805 
0.37544072 0.38042375 -0.059500307 
0.16083717 -0.097279295 0.12512688 
0.13064481 0.17207502 -0.028741246 
0.12605236 -0.0726605 -0.19532709 
-0.19715871 -0.2180206 0.16275804 
0.07827911 -0.075782105 -0.21849005 
-0.1240137 -0.25790763 0.21886611 
0.2548807 0.37187067 -0.022152772 
-0.2729776 -0.21130371 0.19685018 
-0.00045471196 0.053113114 0.10237696 
0.29983154 0.4151508 -0.10668438 
0.13587043 -0.16611953 0.04347835 
0.17460723 0.17496681 -0.041978948 
-0.18946968 -0.16318227 0.29580888 
-0.08624734 -0.030870559 -0.3636573 
0.22012535 0.115717664 0.08818424 
-0.2496454 -0.17600413 0.1694532 
0.4011561 0.40065518 -0.0010792091 
0.38645256 0.42910042 0.03153364 
0.03723053 0.04649206 -0.219582 
-0.24352191 -0.4278121 -0.01077949 
0.2601494 0.20081058 -0.076827645 
0.083898395 -0.006628708 -0.17210491 
0.10178998 -0.21360223 0.21940419 
-0.26463884 -0.26134148 0.1749476 
0.03377978 0.020125596 -0.16620108 
-0.047400165 0.00029513962 -0.020106249 
0.10810076 0.17339684 -0.03163346 
0.039103486 -0.2273891 0.11105171 
-0.040433772 -0.22045113 0.110682786 
-0.058120385 -0.013540419 -0.03361122 
0.05036227 0.12889783 -0.0697705 
0.37592202 0.36742562 0.086931914 
0.24934025 0.003561618 -0.12311265 
-0.20870067 -0.4191792 0.04526085 
0.2911603 0.15918778 0.106212616 
0.08637816 -0.10800243 0.23999223 
0.3052516 0.12638271 0.061873905 
0.21296877 0.47419783 -0.10845937 
0.022071408 0.019536814 -0.10333082 
0.02985828 0.07897635 0.055579327 
0.10337209 -0.15232228 0.24101576 
0.13429648 0.16492559 0.0033061923 
0.37007698 0.23516443 0.09390481 
0.22326973 0.0694446 -0.14448474 
-0.105254196 -0.04516119 0.032899637 
0.018604802 0.07407752 0.053926993 
0.2622641 0.481217 -0.13256922 
0.31061038 0.14137203 -0.06767202 
-0.0406247 0.0030258934 -0.33553827 
0.121369205 -0.13965562 -0.016027033 
-0.08206906 -0.27931622 0.10967 
-0.29069725 -0.25414547 0.17655928 
-0.017356848 0.005413151 -0.30667582 
0.1276589 0.0027573071 -0.18374573 
0.051650144 -0.267181 0.28241956 
-0.053177446 -0.23040123 0.12354955 
0.069332175 0.14447105 -0.06633715 
0.003994867 0.0047276733 -0.22352484 
0.23163709 0.46653637 -0.07072947 
0.065363 0.059496023 -0.1736258 
0.32712707 0.45227084 0.022643857 
0.12346437 0.18109389 -0.029807262 
0.09227587 -0.12260014 -0.23005775 
0.09123727 -0.19868264 0.11136753 
0.2207816 0.012038495 -0.15265323 
0.22027154 0.4968355 -0.10954458 
0.09699545 0.018215641 -0.19030558 
0.09007633 0.15064304 -0.12405562 
-0.17062019 -0.082769334 0.26111293 
0.0990466 -0.10194704 -0.20682651 
-0.22554062 -0.1677577 0.14803122 
0.31986395 0.4427605 0.027351089 
0.30049798 0.3249155 -0.0679363 
-0.25598007 -0.48078936 -0.031983856 
0.19099416 0.04104423 -0.17748363 
0.23081774 0.04817841 -0.1486994 
0.0042783115 -0.17608587 -0.30451238 
0.16024499 -0.12945846 0.062361736 
0.3455979 0.419129 0.076109596 
-0.16215803 -0.07915508 0.23218213 
0.11126218 -0.117890514 0.20272607 
-0.039581135 -0.19043125 -0.31972766 
-0.336138 -0.2974756 0.17870973 
-0.008361695 -0.32698148 0.22298156 
-0.07226119 -0.010791376 -0.0023005768 
0.21135218 0.074265525 0.1005004 
0.12648438 0.14713505 -0.15083838 
-0.07092583 -0.03149504 0.25953233 
0.3416859 0.17226553 0.05324466 
0.21541685 0.0041135103 0.07049392 
0.3165755 0.13209748 0.034407437 
0.31632993 0.44898093 0.009489994 
0.11551883 0.010805153 -0.18739957 
0.14840782 -0.0055043497 0.11358973 
0.07007512 -0.18679042 0.2996335 
0.282025 0.4107708 0.021459524 
0.18734169 0.09218466 -0.14624743 
-0.3246064 -0.31355518 0.120775156 
0.16675608 -0.0974783 0.0856911 
0.27976593 0.4869202 -0.052754205 
-0.31853426 -0.31334713 0.14910017 
-0.06383427 0.015838917 0.12043839 
0.253838 0.38461208 -0.059693184 
-0.13060184 -0.16151875 0.13834438 
0.1755828 -0.01935007 0.08266177 
0.25024635 0.4780252 -0.065635584 
-0.25191292 -0.45531636 -0.0018791491 
-0.033400036 0.013174849 -0.21533227 
0.031113222 -0.112206146 -0.24542636 
0.3115205 0.3498812 0.042557407 
0.02821127 -0.13194713 -0.0822139 
0.018508231 -0.30207407 0.2611896 
0.26880342 0.3073766 -0.017036613 
-0.2978125 -0.47190505 -0.07254476 
0.15016463 -0.08187035 -0.13820179 
0.21677832 0.14301631 0.08449106 
0.3093635 0.15729704 -0.054896653 
-0.16495521 -0.08229946 0.24030973 
-0.25425312 -0.486301 -0.108492166 
0.050315093 -0.17774752 0.30548924 
0.3482042 0.17525312 0.03363603 
-0.17674868 -0.4044826 0.067708515 
-0.02792117 -0.3431407 0.17315945 
-0.033814564 -0.010097476 -0.045710057 
0.29032344 0.3928262 -0.09788224 
-0.112591594 -0.09582427 0.061341092 
0.06058451 -0.22695638 0.0719292 
0.05845994 0.103834584 -0.1895207 
-0.15835337 -0.09662865 0.29231045 
0.10694551 -0.20859222 0.121812455 
-0.05024852 -0.3275445 0.26673746 
-0.093460225 -0.0055245636 0.077325806 
0.39296916 0.2608642 0.027368085 
0.14761728 -0.13612257 -0.00075565185 
0.12090281 -0.07895683 -0.10892957 
-0.06163112 -0.25543898 0.33671787 
-0.06498134 -0.048074402 -0.03521379 
0.13143681 -0.17653975 0.12717266 
0.24778453 0.2283529 -0.009728067 
-0.14705732 -0.079300225 0.27559498 
-0.0051931283 0.06001626 0.023992293 
0.12964724 0.1282741 0.018285627 
-0.03379925 -0.03297726 0.25622678 
0.2019954 0.18009588 -0.0041155475 
-0.019087335 -0.1852605 -0.3235038 
0.08909114 -0.080709286 -0.22269112 
0.062272422 -0.14636259 -0.20338848 
-0.09466465 -0.02170682 0.05441653 
-0.100775085 -0.086388014 0.3019611 
-0.036283806 0.036586415 0.008250522 
-0.2190475 -0.1503514 0.16001944 
-0.2520758 -0.2599484 0.17278078 
-0.3730741 -0.3394475 0.10913237 
0.3913568 0.42976606 0.015902147 
0.20195521 -0.0145583935 0.06506961 
0.03348649 0.10725679 -0.08018005 
-0.027383594 -0.22684364 -0.33370188 
0.33455607 0.18178761 0.096999116 
0.29782113 0.11908255 -0.06588928 
-0.45591477 -0.37697586 -0.05808618 
0.021779515 -0.2990843 0.17760436 
-0.1285586 -0.24496548 0.18386728 
0.38683584 0.23634839 0.024156144 
0.314945 0.22286263 0.10071203 
0.25966373 0.45994368 -0.046271354 
0.044454627 -0.15968587 -0.23639084 
0.21998742 0.02451794 0.08074426 
0.24206723 0.081697434 0.09224007 
-0.2590156 -0.4867607 -0.1238528 
0.116749324 0.13714875 0.033964865 
0.122744665 -0.15700288 0.0033798867 
-0.06429094 -0.0065770163 0.18430509 
0.28387493 0.47298136 -0.02970332 
0.18876311 0.14237896 -0.11317197 
-0.084747404 0.0019771396 -0.4426576 
-0.1249789 -0.016250554 -0.45090404 
-0.42613855 -0.38418925 0.058811717 
-0.22690846 -0.19739644 0.1306436 
0.10070232 0.17306298 -0.054696478 
0.27621058 0.17911053 -0.074641965 
0.0069879917 0.05926199 -0.16674982 
-0.10177706 -0.18905452 0.141724 
0.25081944 0.22685623 -0.043095205 
0.2132019 -0.062225476 -0.0683967 
0.017375188 0.09232562 -0.15206984 
0.23663272 -0.03311462 -0.027366936 
0.34421563 0.22169326 -0.034628745 
0.11667143 -0.005511069 -0.19020236 
-0.22470711 -0.41956744 -0.025724405 
-0.12513109 -0.08912922 0.11188766 
-0.25418282 -0.4838868 -0.09293321 
0.22111052 -0.017571187 0.04095397 
-0.216895 -0.4452168 -0.02648567 
0.39360258 0.28823772 0.07791793 
0.089669704 -0.21439989 0.10247324 
-0.15880881 -0.2358743 0.29332176 
-0.32811478 -0.27162138 0.16716358 
-0.15099105 -0.37393937 0.100241244 
-0.4280754 -0.38770995 0.055859227 
-0.13039514 -0.10357621 0.12662546 
-0.083838604 -0.3562719 0.085510574 
-0.12781921 -0.36571485 0.095040545 
0.014657667 0.07426675 -0.19060026 
0.1034946 -0.036145754 0.1555818 
0.30708325 0.30134752 -0.058142815 
-0.008967685 0.0440925 -0.17619297 
0.26114365 -0.015255433 -0.0625499 
0.068716064 -0.11756273 -0.07272562 
-0.2973947 -0.28915134 0.121451505 
-0.28838605 -0.46130893 -0.12469964 
0.046263445 -0.1382563 -0.064666465 
0.2550059 0.34825912 -0.048149806 
0.32460803 0.46819866 -0.037154563 
0.23752008 0.48300886 -0.14903569 
0.37910867 0.25538206 0.08781423 
0.06559232 0.01960886 0.13600399 
0.1440824 -0.005639458 0.12526444 
0.26599893 0.05313554 -0.12155845 
-0.04553224 -0.1546391 -0.022605 
0.1372849 -0.12553275 0.15191273 
0.43518168 0.4345891 0.038095083 
0.3794985 0.2311533 0.018146742 
0.3891526 0.35624975 0.06976399 
0.23679157 0.45434186 -0.078709625 
0.08805525 -0.10070485 0.22778292 
-0.27385083 -0.47474414 -0.08011404 
-0.11389146 -0.041925874 0.106982306 
0.08536988 -0.039759804 0.17278226 
-0.39110973 -0.32461193 0.10468184 
0.3771185 0.41988647 0.05540473 
0.038539387 0.006951383 0.14790198 
-0.021123616 -0.06257159 0.28890982 
-0.089142375 -0.30936986 0.21198079 
0.09154355 -0.21156283 0.13414861 
0.046776783 0.0034710572 0.16013634 
0.0857216 -0.09380592 -0.114795245 
-0.10485106 -0.25931776 0.16536357 
0.06940727 0.051994614 0.0887304 
0.08229452 -0.13777559 -0.22566889 
-0.011370661 0.023108574 0.14625977 
0.32615885 0.2311103 -0.042541884 
-0.10297253 -0.29350153 0.20783818 
-0.12056674 -0.27171013 0.16676512 
-0.0937744 -0.27388817 0.29810214 
0.04181281 0.07033698 0.066988386 
-0.2236971 -0.21544236 0.14252988 
-0.22844604 -0.43803534 0.02331841 
0.22967461 0.06582259 -0.1436488 
0.076037616 -0.22593705 0.14449556 
0.3687832 0.21441437 0.011470438 
0.26263222 0.055901423 -0.12210585 
0.3377173 0.16763031 0.060456853 
-0.19895399 -0.43353075 -0.021672886 
-0.066451415 -0.32578826 0.25192255 
-0.00843622 -0.025913592 -0.08348226 
-0.090929374 -0.065496705 0.29522157 
-0.057586398 -0.20371206 0.0777773 
0.13893098 -0.08017051 -0.18653393 
0.044967473 -0.2307581 0.10237924 
-0.042592395 0.0020584357 -0.3481011 
0.26890817 0.020040242 -0.013815997 
-0.019735545 -0.22889408 -0.32882708 
0.18919687 0.10622689 -0.13483435 
-0.010926012 0.055964295 0.028444566 
0.16986804 0.14381313 0.052945934 
-0.0006853855 -0.24992736 0.32858858 
0.046623643 -0.2848963 0.21271965 
0.23070695 0.14308107 0.09090992 
-0.20880045 -0.16763096 0.14545892 
0.040945932 0.010871079 0.14843407 
0.019712698 0.07186809 0.007856419 
0.016655779 0.054075684 0.0032497765 
0.26630005 0.3280492 -0.0268296 
0.2528387 0.11463459 0.09309873 
0.2742213 0.4388631 0.0023259607 
-0.06525609 -0.34155232 0.08087676 
0.091393955 0.15372013 -0.03486581 
-0.34563524 -0.28123483 0.1051519 
-0.17284082 -0.3727238 0.06368592 
-0.2564842 -0.4702075 -0.0025240062 
0.17065468 -0.13371369 0.09942664 
0.11721513 -0.09480214 -0.1581479 
0.05661485 0.10284599 -0.01233851 
-0.027880259 -0.072242394 0.3022592 
0.23404358 -0.037783317 -0.096832015 
0.18779804 -0.014039388 0.0713183 
0.2508248 -0.02494857 -0.009654665 
0.06797545 -0.02440611 0.17238474 
-0.025572658 0.03347743 -0.21915632 
-0.115471624 -0.24277693 0.29211673 
0.28062478 0.4020546 -0.10374886 
-0.11060027 -0.37093082 0.06573075 
-0.2479762 -0.47613356 -0.064257056 
0.16350216 0.06894916 0.097661965 
0.05276206 -0.07227557 -0.11748818 
-0.012127589 0.051501073 -0.24792679 
0.03588488 -0.2931594 0.21953064 
-0.32246792 -0.26337406 0.14895013 
0.062475197 0.138424 -0.027632281 
0.087109536 -0.0053684795 -0.15599121 
0.010227891 -0.030708423 0.24053748 
0.054137874 -0.06140584 0.23005691 
0.25974086 0.39375508 -0.0806817 
0.007814112 0.061173834 -0.22504851 
-0.08125261 -0.21638009 0.34525397 
0.30729654 0.29361132 -0.05914482 
-0.036651973 -0.14454333 -0.01942861 
-0.047695693 -0.22527552 -0.33106977 
-0.22128798 -0.23707607 0.21185663 
0.03465718 0.11342334 -0.15061283 
-0.29819494 -0.21777554 0.14155103 
0.09636094 -0.20481302 0.0390497 
0.17040303 -0.086170174 -0.106633656 
-0.06310277 -0.07247646 0.30599868 
0.25352496 0.40983596 -0.022485618 
0.24242295 0.07178449 -0.13007039 
-0.17802575 -0.23385838 0.28884652 
0.030732853 -0.26273704 0.30449116 
0.32056513 0.21434382 -0.049391504 
0.15830728 -0.13246144 0.0766171 
0.38574615 0.361809 0.07720168 
0.04166491 0.01044437 0.15908608 
0.3666501 0.34010932 0.0870037 
-0.2143691 -0.1498427 0.2722891 
0.027899867 -0.13078041 0.3035594 
0.40122223 0.31939453 0.022041501 
-0.12884377 -0.09507772 0.12916158 
-0.1808604 -0.40881646 0.049409762 
-0.031798467 -0.3167647 0.26935798 
-0.06232473 -0.03174064 -0.3622021 
-0.47319233 -0.3753433 0.0025738855 
-0.4683675 -0.3642286 -0.0068338034 
0.028907856 0.0761846 0.028227631 
0.13692582 -0.099528655 0.15546887 
0.23299526 0.21975204 -0.024336144 
0.17076893 -0.061181754 0.099439256 
-0.10802303 -0.29242387 0.17189153 
-0.45426622 -0.3923677 -0.04386108 
-0.2573015 -0.48570764 -0.077777214 
0.18426745 -0.0709092 -0.043431044 
0.15279642 -0.04861161 -0.20593987 
-0.09538459 -0.13032238 0.3328513 
-0.004884514 -0.19292016 0.32871485 
0.123035766 -0.18824287 0.11918073 
0.014820057 0.0053942194 -0.08781442 
0.14105496 -0.15585323 0.13203952 
0.004057291 0.02812555 0.1361473 
0.2657288 0.3866396 -0.00032675813 
-0.18327196 -0.2486051 0.25628704 
0.23873033 -0.0013600739 0.028106576 
-0.011001121 -0.3252329 0.24340501 
0.090193905 0.073201954 0.059498496 
0.0416096 -0.14611769 -0.20994349 
-0.022584027 0.03188062 -0.22911417 
-0.073891036 -0.01651887 -0.47125444 
-0.08169651 -0.31662318 0.28867555 
0.09616516 -0.17279294 0.26277143 
-0.09402639 -0.17874297 0.34779277 
0.26916632 0.0018290323 -0.09495271 
0.06843704 -0.1499585 0.292824 
0.28355584 0.466908 -0.02477071 
0.31687468 0.43407327 -0.09953532 
-0.37192526 -0.28804734 0.12825239 
-0.06544733 -0.34908727 0.11872565 
0.19108534 -0.04519955 0.042293657 
-0.0068464437 0.010080239 0.16797802 
0.04127733 -0.13687547 -0.19461365 
0.1426713 0.13457893 -0.14718619 
0.24029334 0.12252709 0.10122087 
0.1620213 -0.08452787 -0.040829815 
-0.08919512 -0.21565983 0.14487071 
0.025816297 -0.18119642 -0.2660906 
-0.012354245 -0.21424562 -0.295186 
-0.34109062 -0.29159042 0.10251341 
-0.15199965 -0.08638445 0.1352869 
0.402478 0.38182896 0.04662201 
0.19169602 -0.062856376 -0.106834754 
0.2751627 0.25705343 0.013393829 
0.31614783 0.120670624 -0.0065402794 
-0.09014923 -0.047150474 0.26745552 
0.33108756 0.30297184 -0.055112276 
0.09554287 -0.024293104 -0.16959468 
-0.098929234 -0.29352933 0.22018297 
-0.001699555 0.022898959 -0.17851046 
-0.24200258 -0.1740969 0.1397289 
0.24208514 -0.038358316 -0.07119367 
0.38676792 0.22223343 0.0720557 
-0.053950045 -0.16064611 0.009822755 
0.3621332 0.42248726 0.060306586 
0.29356828 0.38354376 -0.09056443 
-0.11231849 -0.25067556 0.29090667 
0.09467338 -0.2081094 0.07429984 
0.39767534 0.27813843 0.0216513 
0.09445594 0.15265948 -0.0017522201 
-0.15452172 -0.15600324 0.32405382 
0.06870696 -0.0944633 0.24891664 
0.15773122 -0.12832037 0.09455971 
0.27867714 0.3183563 -0.005775872 
0.004319475 -0.15507852 -0.26600543 
0.022419931 0.060451172 -0.23733665 
-0.07271467 -0.27805126 0.09276391 
-0.09567358 -0.31244984 0.2204899 
0.26782805 0.31931582 -0.03379107 
-0.3778835 -0.3431515 0.104329705 
-0.4075571 -0.3041431 0.06001348 
0.28776103 0.30380437 0.03030008 
-0.45910823 -0.3635155 0.048127323 
0.04078347 0.061727528 0.07859827 
-0.031281177 -0.0099570565 -0.052141752 
-0.29042295 -0.44546267 -0.11187998 
-0.06460827 -0.32376996 0.06950301 
0.31501195 0.2551699 0.08640573 
0.123248294 -0.12065626 -0.046435285 
0.39420253 0.27452776 0.017352732 
0.09214923 -0.20676716 0.18138762 
0.14878252 -0.14838274 0.11188644 
0.27028427 0.25717866 0.019083103 
-0.11664078 -0.1892235 0.14256077 
0.24628922 0.36965257 -0.050085027 
-0.06943157 -0.101845235 -0.026601702 
0.17985253 -0.058517557 -0.15960471 
0.036732513 -0.13759397 -0.27249938 
0.03868632 0.0983719 -0.0483439 
-0.41850078 -0.38614967 0.008143993 
0.28831804 0.13067967 0.09373112 
0.0867865 0.13671702 0.026823362 
-0.478777 -0.37110677 0.0027554594 
0.09291032 -0.09834066 -0.16466397 
0.3090403 0.44920963 -0.08433851 
-0.093692206 -0.042747024 -0.43190575 
0.0131065985 0.06336404 -0.11587688 
0.31229714 0.13294767 0.042255476 
-0.32817927 -0.27520636 0.1755032 
0.24220023 0.059466466 0.07229528 
-0.32928425 -0.27346736 0.14666986 
-0.006478076 0.029774863 0.15070474 
0.09282146 -0.16036627 0.2585412 
0.38201395 0.44441378 -0.025406279 
0.19705324 0.060328424 -0.15835586 
-0.05720868 -0.2417388 0.13470285 
0.13123123 0.15401267 0.018782148 
-0.049579903 -0.29812008 0.30636093 
-0.140507 -0.13255626 0.14260195 
-0.032347456 -0.24104081 -0.3893732 
0.08130269 -0.13449657 0.26169217 
0.2577175 0.35470068 -0.012203569 
0.11495954 0.14943752 0.014947372 
0.08278586 0.15457657 -0.10413727 
-0.07172211 -0.030594138 0.19936994 
0.025794981 -0.29263404 0.13765477 
0.05315355 -0.10253253 -0.1888495 
-0.124702945 -0.052954413 0.2626749 
0.36883938 0.20762813 0.064435646 
-0.07552309 -0.02519504 -0.46743968 
-0.0055525713 0.051359635 -0.003109618 
-0.06823571 0.0054149036 -0.309446 
0.094899215 0.16484916 -0.04103976 
-0.05279461 -0.33709067 0.17777856 
0.40686187 0.35274017 0.028813427 
0.023412004 0.09934493 -0.17065527 
-0.10175447 -0.35901418 0.0766799 
0.28524646 0.2760492 0.04479933 
-0.22283502 -0.42115626 0.024672095 
-0.2857875 -0.22541003 0.16847752 
0.2905137 0.030332344 -0.039029732 
0.24852215 0.0849907 0.08590662 
-0.119702324 -0.26966542 0.27148038 
0.11020422 -0.17882699 0.015943998 
0.32385138 0.3952669 0.06580911 
0.33106142 0.16856596 0.062448546 
-0.09476261 -0.13515276 0.055242844 
-0.0068844277 -0.039123423 -0.10008479 
-0.2813838 -0.4641342 -0.028984655 
-0.09570841 -0.32389504 0.15623294 
-0.07144607 -0.19123015 0.09923812 
0.029122716 -0.29950747 0.24554396 
-0.24921843 -0.25317287 0.15046094 
-0.10851703 -0.1321997 0.34654015 
-0.10229573 -0.2857945 0.17489895 
-0.004856564 0.047344882 -0.01475483 
0.2838121 0.2494939 0.08148235 
-0.01907149 -0.17926641 -0.28805697 
-0.121945195 -0.2104905 0.15774459 
0.22177118 0.5032631 -0.12407485 
0.07138894 0.08607331 -0.18296158 
-0.016922131 -0.20555276 0.060743395 
0.2378533 0.059763595 0.075379 
-0.25895888 -0.4919782 -0.071421236 
-0.18517032 -0.15820393 0.14782774 
-0.15771244 -0.24036263 0.24408634 
0.0046940176 -0.2898296 0.12371904 
-0.06808559 0.00874599 0.12944926 
-0.015928268 0.008163753 -0.28884116 
0.06485493 -0.26202658 0.28098863 
0.014124161 0.04536955 -0.13466002 
0.00027725077 -0.17590712 -0.2664878 
-0.009249973 -0.3178783 0.1351237 
-0.14727025 -0.104920454 0.16026233 
0.04147152 0.11373607 -0.15090655 
0.0033015327 -0.058561586 0.2821771 
-0.040049274 -0.23309715 -0.3924312 
0.11650753 -0.106410496 -0.05609686 
-0.022138467 -0.24611308 -0.35408285 
0.20732549 0.19500789 -0.031010529 
0.0078294985 0.057697598 -0.22344063 
0.034597475 0.11166376 -0.14156772 
0.09207414 0.07132128 0.07735645 
0.38267037 0.40551716 0.05674361 
0.078335136 -0.1431179 -0.24037895 
0.025819924 -0.08014054 0.27804896 
-0.44048125 -0.39160997 -0.00053904625 
0.24596176 0.011411682 0.056974106 
0.05419565 -0.11446461 -0.17965822 
-0.17136632 -0.15535536 0.3155887 
0.16532756 -0.10580991 0.084529914 
0.0718569 -0.25311667 0.21584895 
0.111202106 -0.18709238 0.20728922 
0.08530877 -0.21263222 0.08384493 
0.3275489 0.14191274 -0.0322331 
0.02816724 -0.059801675 0.25914297 
-0.029943166 -0.30723822 0.29420385 
-0.17693605 -0.23545852 0.23860194 
0.058879912 -0.18558468 0.29137617 
-0.009760549 -0.002956576 -0.24982114 
0.29916665 0.29346052 -0.0056464234 
0.27401155 0.49175656 -0.11228769 
0.0954548 -0.09539219 0.21298122 
0.025486564 -0.08843329 0.28352308 
0.35451058 0.28306755 0.10194756 
-0.08919568 -0.13410689 0.06934113 
0.17231865 -0.049321484 -0.18326929 
0.043106407 -0.2695328 0.27300197 
0.25717586 0.08238871 0.07469224 
-0.10994859 -0.012863433 -0.46140763 
0.16177268 0.09517798 -0.15319458 
0.1512851 0.044248145 -0.18106458 
0.17842992 0.015699314 -0.18608037 
0.0040345103 0.018667776 -0.17897889 
-0.2773944 -0.4926783 -0.08735842 
0.06430194 -0.20220423 0.006774824 
-0.052900463 -0.015931845 -0.30916116 
-0.19861926 -0.20312043 0.1944885 
-0.22932702 -0.45284882 0.0073382547 
0.055123918 -0.11368378 -0.07767486 
-0.23740649 -0.19489764 0.13585983 
-0.05880487 -0.06113639 -0.056942377 
0.10679458 -0.1999871 0.05224082 
0.33587837 0.46207285 -0.02288313 
-0.066194884 -0.33916324 0.085401624 
-0.027189195 -0.23541969 -0.33951828 
0.4160584 0.41110522 0.0070184097 
0.09662681 -0.2150693 0.12907565 
0.10090217 -0.038652368 -0.17853567 
-0.034286514 -0.20058131 -0.35087824 
0.30803987 0.29324305 0.07367755 
0.2813866 0.1726765 0.0927092 
0.22065917 -0.054231077 -0.11001281 
-0.06846245 -0.028933417 -0.0033021388 
0.09144837 0.06134647 0.08669772 
0.30254784 0.3029919 -0.059964195 
-0.042094793 -0.0025400906 -0.033779934 
0.017955797 -0.17861883 -0.29558703 
-0.4285715 -0.3672464 0.07980455 
0.038409717 -0.29136717 0.25930575 
0.2498867 0.06555127 -0.12182227 
-0.051953383 -0.30983856 0.0731004 
-0.17003624 -0.34667215 0.0857731 
0.30925918 0.3309604 0.03897772 
0.3897086 0.34762987 0.0026047071 
0.33697087 0.44602948 0.006356159 
0.18024457 0.17884032 -0.0647969 
0.18450111 -0.030784832 0.06480189 
-0.078117475 -0.15542564 0.035532214 
-0.24257064 -0.15030704 0.2113054 
0.3694592 0.38123786 -0.06629118 
0.05877798 0.13182124 -0.16181067 
0.073616296 -0.1401104 -0.19364055 
-0.33207393 -0.31011584 0.16376819 
0.3006588 0.26118952 0.08403177 
0.2617637 0.41574425 -0.09610464 
0.11224703 -0.16677827 0.23404832 
0.22566316 0.45248228 -0.13218613 
0.060478546 -0.1502628 -0.2283308 
-0.15963903 -0.20881861 0.32091382 
0.12674071 -0.17385271 0.19853812 
0.093004666 0.134095 -0.14294618 
-0.015607908 0.03697375 0.11720636 
-0.12816632 -0.075083174 0.2967188 
0.24579582 0.38261378 -0.03346617 
-0.0061083534 -0.3021398 0.12958479 
0.026062053 -0.17603256 -0.2835713 
0.32794562 0.3018255 0.09217446 
-0.3621578 -0.28258204 0.122345015 
-0.077862054 -0.26338232 0.14529212 
0.065404095 -0.0003704786 0.13578136 
0.29716966 0.102526374 0.00012884068 
0.40059876 0.28873608 0.05969679 
0.11302074 -0.15719314 -0.031883582 
-0.025482494 0.035480544 -0.23195508 
0.13132614 0.058279917 0.10673274 
-0.10611939 -0.16111444 0.0945245 
0.027836408 0.025418108 -0.09956899 
-0.075674124 -0.15085542 0.083347775 
-0.020533988 0.041766487 -0.0077765374 
0.24836694 -0.0023021963 0.010040723 
-0.13425349 -0.059972346 0.27208197 
0.023149088 -0.16199808 -0.04233866 
-0.11122616 -0.13234563 0.33940193 
-0.00085495 0.0066119703 -0.23427683 
-0.17499886 -0.11471938 0.14463595 
-0.17017624 -0.156557 0.31411165 
0.26946568 0.14179339 0.091195345 
0.034984592 -0.2316316 0.11185869 
-0.26969174 -0.24289685 0.13561706 
0.15432246 -0.14206205 0.05732826 
-0.31431782 -0.31009758 0.15747476 
-0.005765821 -0.19511193 -0.25503588 
0.27741957 0.14562811 -0.087810546 
0.23672476 0.44313505 -0.108750805 
0.24176073 -0.0067823394 -0.1295313 
-0.18657914 -0.15615572 0.30795383 
0.21782781 -0.041394968 -0.0016064513 
-0.22924772 -0.16614017 0.14901976 
0.048124034 0.11824292 -0.15901008 
-0.03579897 -0.32614443 0.1295299 
-0.0552814 0.019040838 0.0077770357 
0.3375879 0.3181776 0.09406871 
0.029871915 -0.1115759 -0.23143002 
-0.25484693 -0.4410511 -0.05625736 
0.10633559 -0.19605988 0.15739587 
0.005420539 -0.31516245 0.26510537 
-0.11231734 -0.075351804 0.29474518 
-0.01357615 -0.31783122 0.14819239 
-0.06141396 -0.026443483 0.23798135 
0.015539725 0.08899374 -0.101532154 
0.19383383 0.052482728 -0.15730877 
-0.01995215 -0.23317039 -0.31870392 
-0.02008877 -0.0068591693 -0.28089246 
0.21010731 -0.043055456 -0.09819917 
-0.256479 -0.23217373 0.20564327 
-0.08479763 -0.1671146 0.073284455 
0.40619737 0.33757913 0.03935825 
0.08055374 0.15016174 -0.045238316 
0.3366969 0.36543572 0.08756131 
-0.07192977 -0.033658188 -0.4250998 
0.3205743 0.45512608 -0.07630624 
-0.19669046 -0.16156812 0.2833768 
-0.046133436 -0.32140243 0.088035375 
-0.30772784 -0.3066549 0.16274223 
0.20069651 0.14672212 0.058879748 
-0.15646954 -0.16568694 0.33610794 
-0.116337225 -0.33318013 0.11357138 
0.06908015 -0.12828034 0.27441296 
0.2435226 -0.02666485 -0.04651265 
0.16542989 -0.09433997 -0.017441083 
0.05174817 0.13314886 -0.07156607 
0.093928225 0.03263898 0.112689696 
0.39979744 0.3356185 0.062061895 
-0.18086843 -0.4079279 0.06280069 
0.05989069 -0.091032565 -0.13060619 
-0.07418936 -0.1584965 0.34600207 
-0.029137071 -0.10695716 0.32275167 
-0.046098232 -0.10418068 0.32618093 
-0.16047622 -0.20411567 0.16752931 
0.24894558 0.48620737 -0.07050074 
0.1827413 -0.0801263 -0.11573106 
0.121833324 0.13003069 0.039394654 
0.2985522 0.4862459 -0.063482806 
-0.46250162 -0.38078138 0.027902745 
-0.054357115 -0.023395507 0.22172524 
0.38737157 0.32039022 -0.007113526 
-0.02654862 -0.23367763 -0.37706652 
-0.17251933 -0.21918842 0.2226463 
-0.111404486 -0.20594592 0.34245872 
-0.12026359 -0.0026007583 -0.4552942 
0.27202487 0.24005929 0.02178797 
0.27828255 0.07320678 0.044690747 
-0.13913727 -0.24741441 0.19214709 
0.2530666 0.065337606 -0.13084279 
-0.13652945 -0.3238817 0.06819728 
0.40283296 0.3194062 0.035508603 
-0.45215553 -0.38022137 0.064575896 
0.017104493 -0.006676219 -0.11194858 
0.053508367 0.08414126 -0.18901786 
-0.058566827 0.01996193 0.019559473 
0.10347541 -0.16836122 -0.0075541004 
-0.08353687 -0.033467796 -0.35961205 
-0.22799022 -0.4380902 0.023328276 
-0.21739732 -0.13978282 0.18408819 
0.19841123 0.035854656 -0.16498995 
0.18179262 0.17725994 -0.07116239 
-0.12541147 -0.054660965 0.076080315 
0.2507297 0.09028495 -0.11137087 
0.03633937 -0.16179948 -0.019858161 
0.099032186 -0.18216692 0.24684809 
-0.25198776 -0.21485178 0.13045561 
-0.37590197 -0.3416949 0.108487524 
0.07137876 0.12899521 -0.14519435 
0.0002548662 0.061965976 0.10152973 
0.08048609 -0.13777581 -0.25615633 
0.19936982 0.18084942 -0.033269454 
0.11157216 -0.07976145 -0.22072572 
0.09066284 -0.21237259 0.059536524 
0.035686247 -0.10345114 -0.07251665 
0.39743608 0.2764536 0.05317318 
0.23142268 0.17916623 -0.08211696 
0.33195275 0.26614246 0.091847174 
-0.10883477 -0.27796695 0.20452538 
-0.28286612 -0.49813426 -0.111958094 
-0.16103281 -0.076711446 0.22561382 
0.18471651 0.15700118 -0.10813415 
0.028822003 -0.11840068 -0.21765232 
0.096650146 0.004129083 -0.17727591 
-0.21478055 -0.1723324 0.2592807 
-0.08424454 -0.008664911 0.03685037 
-0.097146094 0.008833504 0.059323344 
0.3063773 0.32469425 0.04377611 
0.35679173 0.28631014 0.097012 
0.34796017 0.34577048 0.087164916 
-0.2529933 -0.47800916 -0.12314997 
0.066943154 -0.24560389 0.23371895 
-0.48657557 -0.3601823 -0.032969754 
-0.00985519 -0.26728985 0.31527993 
0.3011619 0.46745408 -0.020318154 
-0.24424481 -0.16878885 0.15869173 
0.2815637 0.25205684 -0.044616822 
0.04808396 -0.1017978 -0.095772736 
0.34483236 0.19464064 -0.01866647 
-0.46165156 -0.39528456 -0.014990965 
0.101446934 0.13879026 -0.14454518 
-0.09011727 -0.022650138 -0.39728475 
0.2347343 0.15215896 0.101750836 
-0.18031152 -0.39841884 0.06892413 
0.32536742 0.33432412 0.08241214 
-0.03328611 0.01270297 -0.30401838 
-0.21126911 -0.150992 0.26520333 
-0.44754192 -0.3500914 0.013323941 
0.111873634 -0.1626641 0.23009717 
-0.10552954 -0.03781199 0.14430937 
0.2874565 0.4899594 -0.06414005 
0.1304175 0.15452628 0.007140056 
-0.17970313 -0.07988642 0.17874727 
0.17943917 0.16342163 -0.10793104 
0.1212944 -0.08866349 -0.19707054 
0.11713857 -0.19487892 0.09327491 
-0.11625371 -0.093457825 0.3179476 
0.25555763 0.13544226 0.10297105 
0.2516972 0.07279351 0.07120314 
-0.10957633 -0.051697277 0.043035086 
0.112996295 -0.123900816 -0.058573477 
0.032512102 0.06779399 -0.052964047 
0.19552757 -0.018321427 0.06863184 
0.100076325 -0.18915188 0.24908946 
0.28665173 0.030992862 -0.024224773 
-0.25005454 -0.21491303 0.23741753 
0.32064322 0.34622625 0.06750474 
0.101087704 -0.19473521 0.042280376 
-0.06764538 -0.024647437 0.1856502 
0.23698907 -0.017229654 -0.057844117 
-0.08858416 -0.31141403 0.27237198 
-0.19844139 -0.23610415 0.23844174 
0.09461601 0.14794624 -0.13656375 
-0.10682134 -0.030755196 0.09909465 
-0.27044514 -0.26861605 0.15333237 
-0.13906188 -0.09138105 0.14600359 
-0.060386177 -0.33556202 0.13957053 
0.29793558 0.24291186 0.07654761 
-0.006958222 -0.07004632 0.28220487 
-0.2449772 -0.16002066 0.19302431 
-0.07098479 -0.22805491 -0.3648069 
-0.033219226 -0.21013993 -0.39094833 
0.004554197 0.033835 0.12600708 
-0.073774844 -0.026207754 0.21970865 
0.14309427 0.12997884 0.05623066 
0.21518935 0.16107129 0.062080994 
-0.11581602 -0.08031745 0.3058708 
0.095216975 0.16876033 -0.07330531 
0.34316748 0.18848751 -0.035425987 
-0.12995474 -0.38173732 0.047029514 
0.075254686 -0.18147273 0.2839226 
0.1431739 -0.16626349 0.09301733 
0.063533105 0.026722431 0.117443874 
-0.0817721 -0.2782274 0.15483126 
-0.053921647 -0.2086034 0.09431785 
-0.40514997 -0.3339464 0.083049804 
0.25977966 0.12733117 0.093725644 
0.052924454 0.032998506 -0.20070939 
-0.1160235 -0.0719475 0.15467338 
-0.19271868 -0.38437828 0.02062828 
0.07607802 -0.07188217 -0.2024848 
0.3075663 0.1337643 0.05999049 
-0.03924892 -0.22966726 -0.32453993 
0.3750869 0.33951673 -0.018905763 
0.29408085 0.2815185 0.051970977 
-0.4825309 -0.36530176 -0.044619028 
0.03969747 0.015668085 -0.16532102 
0.008141288 0.06311125 0.069199346 
-0.075099915 -0.28710112 0.30393094 
0.2866253 0.055067632 -0.08723256 
-0.107644446 -0.1827807 0.34521845 
0.3857751 0.42744625 -0.047300167 
0.1718325 0.034297246 -0.16932644 
0.033859234 -0.30629876 0.16457778 
-0.23036183 -0.16144668 0.24444084 
-0.31068766 -0.27355498 0.11629193 
0.272068 0.47514108 -0.140094 
0.0031179488 -0.32167655 0.23503271 
-0.13671069 -0.33656207 0.052227154 
0.1902371 -0.07390484 -0.058146834 
0.3354417 0.19549073 0.117240675 
0.29264966 0.309227 -0.022185922 
-0.028959127 -0.0036661522 0.18823071 
-0.32580957 -0.2819939 0.11278908 
0.3760954 0.22566761 0.068396136 
0.16898587 -0.09376606 0.09810582 
0.040802598 -0.10678214 -0.20946951 
-0.13730548 -0.06305998 0.20740122 
-0.17143098 -0.2000947 0.31596744 
-0.1721346 -0.100924365 0.24134119 
-0.49181083 -0.393201 -0.0023392858 
-0.077211484 -0.16535519 0.037477046 
0.07228858 -0.06766103 -0.17647524 
0.06433657 0.12817341 -0.03851029 
-0.19377531 -0.15541832 0.2841009 
0.18930145 0.11811261 -0.12777586 
0.05954226 -0.27008092 0.19146396 
-0.079175174 -0.3421583 0.13339432 
0.0051112124 -0.1664781 -0.25392237 
-0.43345192 -0.37146577 0.0060000117 
0.024130322 0.057134863 -0.019688867 
-0.29860866 -0.21604073 0.1524528 
0.1972569 -0.018633064 0.065201 
0.24579236 0.1300068 0.10285117 
-0.13848306 -0.22474271 0.1819175 
0.3528744 0.19010581 0.06748336 
-0.029796474 -0.1898889 -0.27313912 
0.14715967 -0.099877924 -0.031138692 
0.2879592 0.04080521 -0.055675924 
0.09995806 -0.1293633 0.2399136 
-0.41571882 -0.35305038 0.029124012 
0.042418987 0.099021375 -0.19355696 
-0.12411875 -0.0074415235 -0.4325721 
-0.0726604 -0.044545244 0.27444127 
0.2941334 0.106389485 0.01315266 
0.2719674 0.24162446 -0.051731963 
-0.14095995 -0.17038101 0.14532217 
0.199511 0.12528902 0.08527433 
-0.06596697 -0.2756262 0.09725578 
0.25041252 0.10110385 -0.10166854 
-0.025326028 0.043218337 -0.21360001 
0.08768613 0.12583157 0.023822695 
0.32253754 0.3486191 -0.08348456 
-0.105146736 -0.2913494 0.19701414 
-0.036652755 -0.23933542 0.10441212 
0.2808105 0.45538208 -0.12807623 
-0.12521113 -0.08418631 0.30984175 
-0.089146234 -0.1481279 0.030677808 
-0.22805043 -0.189224 0.15721123 
-0.2197206 -0.41561735 0.019879762 
-0.026575625 -0.25244695 0.33897313 
-0.0047282865 0.06576399 0.05879792 
0.22523959 0.15737191 0.067760326 
0.08058637 -0.23766899 0.20733091 
0.037614416 0.10224139 -0.053974196 
0.06911092 -0.07159187 -0.19434293 
0.42661843 0.42712584 0.00920549 
0.039928645 0.08848791 -0.1976779 
0.19614142 0.040859137 -0.16893987 
0.242332 -0.023683943 -0.042014122 
-0.117350176 -0.22484636 0.16173685 
0.070936896 -0.22543257 0.16238713 
0.27680635 0.33188587 -0.064205684 
0.31860226 0.40406337 0.04949124 
-0.45495495 -0.37846017 0.06404581 
-0.23074739 -0.13210513 0.24000035 
0.23542453 0.09499246 -0.115327336 
0.29162648 0.28574634 0.017213533 
0.015911533 -0.20733397 0.05198521 
-0.061131354 0.0006102087 -0.38378862 
-0.17036733 -0.21093899 0.31029788 
0.2233423 -0.029985456 0.021921825 
-0.11342548 -0.034354404 -0.43889707 
0.2240716 0.18547228 -0.04719117 
0.023992594 -0.24656186 0.11668761 
0.23649952 -0.027410641 -0.05158241 
0.36446917 0.45275825 -0.03503576 
-0.032151293 -0.24181837 0.33899385 
0.32415003 0.275382 0.086262174 
0.15955004 0.008859548 -0.18606222 
0.27256998 0.4459449 -0.006025742 
0.06645237 0.12399082 -0.1567976 
0.2849968 0.19732533 -0.06779527 
0.18460283 0.10829206 0.082774416 
0.052511457 -0.151626 0.29784447 
-0.048517942 -0.009789174 -0.033408828 
0.309447 0.14783242 0.08634118 
0.22147343 -0.0046198615 0.059520934 
0.24353941 0.0107109025 -0.14227429 
0.08388885 -0.12283705 0.24658838 
-0.0037989432 -0.24461405 0.068938345 
-0.45361796 -0.3864717 0.036618922 
0.032394506 -0.2646494 0.3050659 
-0.0069445656 0.004297953 -0.24225958 
-0.26421902 -0.17953351 0.16795108 
0.040807407 -0.13608186 -0.060878158 
0.25900406 0.375696 -0.009268901 
0.30347264 0.1330069 -0.07271561 
-0.18382119 -0.3898108 0.077862486 
0.111884005 0.03502827 0.107247345 
-0.018635364 -0.022835791 0.22811759 
0.082957596 -0.07844719 0.20744266 
0.06740535 0.12264823 -0.039498072 
0.34240988 0.16733964 0.03631203 
0.29028216 0.07250641 -0.0043513426 
0.095544755 -0.04694318 -0.18853776 
0.2473251 0.06073364 0.065397404 
0.22059992 0.18656677 -0.06698286 
0.31033713 0.44181657 0.024786746 
0.31106484 0.14879523 0.07883608 
-0.01410673 -0.31506985 0.22216727 
-0.066297896 -0.046106514 0.27483252 
-0.07005669 0.0051725293 -0.3131346 
0.30379152 0.2917476 0.06789965 
-0.011902226 -0.31598797 0.15960394 
-0.19915268 -0.20666397 0.15326971 
-0.2086923 -0.14579527 0.26846918 
0.15118152 -0.08620431 -0.123751774 
-0.08316065 -0.027910754 -0.0068217474 
0.3704068 0.46182394 -0.01302759 
0.03973902 -0.26723018 0.13216409 
-0.109921224 -0.08490386 0.032324906 
-0.108310655 -0.2591895 0.17156051 
0.34775513 0.23547885 0.11150226 
0.022229483 -0.15332966 -0.2213125 
-0.22191854 -0.1242395 0.21391238 
0.07074042 -0.1426191 0.28346828 
0.2699518 0.031979967 -0.120368205 
0.3823516 0.26333058 0.009314271 
0.29163086 0.033455927 -0.0710111 
-0.0164361 -0.008569426 -0.24483185 
-0.08045433 -0.30905867 0.27450415 
-0.012656097 0.0042364243 -0.30222765 
0.36829334 0.42390904 0.056411576 
0.1826028 -0.06286761 -0.15846127 
-0.09682408 -0.3486923 0.074212976 
-0.03863836 -0.21862577 0.07479265 
0.19547644 0.18048845 -0.02431247 
-0.056386035 -0.05968964 0.3008239 
0.26258042 0.010966548 -0.0058649746 
-0.054697704 -0.3387916 0.15993518 
-0.008475725 0.009214061 -0.2777336 
0.35827312 0.29779267 0.09850545 
0.08362955 -0.049025204 0.18582892 
0.013329582 0.03618678 0.11370995 
0.33021474 0.21228147 -0.036212258 
-0.13787937 -0.24737503 0.25555608 
-0.18249667 -0.4064792 0.061290205 
-0.10446458 -0.13399592 0.051062044 
0.2646098 0.009263012 -0.11514207 
-0.097412646 -0.30072582 0.21624987 
-0.24596703 -0.45702344 -0.09369536 
0.30897546 0.3443277 -0.078702115 
-0.074377604 -0.193757 0.114461526 
0.1410068 0.07913004 -0.16425626 
-0.11014435 -0.23301272 0.15610217 
-0.11693673 -0.32767293 0.13715473 
0.07417249 0.04017464 -0.18064389 
-0.000679736 -0.035964288 -0.10549286 
0.23056573 0.2118563 0.015866008 
0.05049694 0.043975856 -0.20061971 
0.055824354 -0.2457634 0.3023226 
-0.24755193 -0.16541468 0.16737133 
0.05740511 -0.2562695 0.26928768 
-0.13649558 -0.070467286 0.2836066 
-0.042942055 -0.017776398 0.18543625 
0.110718966 0.1702062 -0.037591677 
0.25623468 0.46990198 -0.05552947 
0.17853679 -0.0799697 -0.018373765 
0.06314214 -0.2634974 0.20258626 
-0.23007984 -0.2039505 0.14569455 
0.26181626 -0.009996397 -0.091730826 
0.09236484 0.050464336 -0.18969075 
0.03287754 -0.02586619 -0.12530705 
-0.14597587 -0.38941935 0.03808209 
-0.25771198 -0.24338077 0.1301796 
-0.0431554 -0.27191767 0.09164962 
-0.03852415 -0.2553354 0.09777146 
-0.16981837 -0.18684246 0.1532582 
0.2927792 0.12083779 0.08612837 
0.06830237 -0.079975046 -0.20855464 
-0.092987865 -0.16726331 0.35926503 
-0.030945338 -0.23908336 0.33755916 
0.10682978 0.16721857 -0.12421193 
-0.038236674 -0.30492538 0.09165406 
-0.016747884 -0.20615892 0.0553145 
0.31493577 0.11665015 -0.015526641 
-0.07006334 -0.010831801 -0.4682437 
-0.34367874 -0.29944584 0.16482754 
0.25075185 0.20126787 0.061092377 
-0.11153686 -0.08813775 0.31444794 
0.30033863 0.2785833 0.055438 
0.2412322 0.17693861 0.08143731 
0.3547486 0.22493696 0.103194855 
-0.005523855 0.04534047 -0.21007083 
0.14021814 0.05230036 -0.17538808 
0.03903141 0.1267209 -0.10728542 
0.42196974 0.41066432 0.03109125 
-0.20634647 -0.3992507 0.023366272 
0.3686901 0.42050722 -0.055389695 
-0.22318226 -0.22235198 0.17991814 
0.373356 0.43434098 -0.047369193 
0.0048343088 -0.01801138 0.20471415 
0.31394875 0.35401428 0.032037854 
-0.24232395 -0.46667266 0.013462326 
0.24926321 -0.024714647 -0.018160874 
-0.122601844 -0.23000945 0.32045534 
-0.067908205 -0.15716457 0.006753912 
-0.039943285 0.052714035 0.007851799 
-0.10988406 -0.021432795 0.08489131 
0.3788882 0.22957616 0.050735135 
-0.13627775 -0.33797467 0.116439976 
0.2431757 0.062388092 0.05524456 
-0.06030488 -0.038213715 -0.35334256 
-0.07284164 -0.15915455 0.34571248 
0.2781166 0.012927987 -0.06881021 
-0.13453269 -0.062598266 0.25141048 
0.014886026 0.0034329079 -0.096565396 
-0.22807966 -0.417347 0.0012543313 
0.0076092714 -0.21380244 0.33814386 
0.08831899 -0.13007586 -0.1739915 
-0.0602175 -0.20467585 0.10097639 
0.20023894 -0.023889137 -0.15314865 
0.24917601 0.45428374 -0.13301592 
-0.24740306 -0.47910935 -0.023447156 
0.19125956 0.010028747 0.08631691 
-0.15122315 -0.3326043 0.0735479 
