0.27673206 0.09431003 -0.21781676 
-0.32067442 0.170562 0.008169766 
0.43045938 0.16070634 -0.03906979 
0.17066859 0.109078445 0.02269452 
0.093905315 -0.53443575 0.057986647 
-0.016334616 0.19999546 0.09280185 
0.32611644 -0.050996467 0.19211566 
0.3772862 -0.17325145 5.4586246e-05 
-0.03339866 -0.5317594 -0.038620338 
-0.03258616 -0.5697302 0.055999774 
-0.06811555 -0.07933711 -0.07642283 
0.33888072 0.29478452 -0.11873164 
-0.097416244 0.17329466 0.06165813 
0.0067117484 -0.4094748 0.06405196 
-0.15608479 0.062801905 -0.1231329 
-0.036397275 0.1625321 0.06563987 
-0.0359682 0.09139099 -0.17247812 
0.070020206 -0.25806588 -0.031697884 
0.2880111 -0.28803813 0.014782838 
0.14512491 -0.12633704 0.23953822 
0.32224342 -0.18180102 0.1945811 
0.14443581 0.19650856 0.19845359 
0.026168955 -0.19776945 -0.008804336 
0.222851 0.039486364 -0.060386106 
0.015777234 -0.49132198 0.27089024 
-3.607877e-05 -0.40614915 0.10740915 
-0.21811205 0.017785957 0.11028594 
0.09438379 -0.22082357 -0.06477168 
0.22270808 0.28342795 -0.20318446 
-0.102667205 0.2042735 -0.05008701 
0.38857654 -0.019564994 -0.10753166 
0.26057073 -0.01947575 0.2321571 
-0.008529083 -0.36361864 0.2924678 
-0.21596152 -0.012800472 -0.005900679 
-0.10937423 0.22252297 0.045607895 
0.3080451 0.080989204 -0.19876723 
0.4072535 -0.08024012 0.113858186 
-0.07863983 0.25853556 -0.23872577 
-0.019868674 0.22098434 -0.13157426 
0.008153405 -0.38723198 0.004954682 
0.10914062 0.022846526 -0.06769389 
0.2769346 0.29869056 0.05240207 
0.18968385 -0.39555612 0.06781114 
0.21795096 0.0013012228 0.21220607 
-0.07610537 0.19861858 0.057274267 
-0.081292376 -0.30248472 0.1593886 
-0.1252891 -0.53001475 0.09103136 
0.115451396 0.1703121 0.03184949 
0.00253828 0.27582574 0.028534327 
0.21810691 0.05806822 -0.0030476493 
0.32695234 0.08791383 0.16178195 
-0.04045583 -0.36943895 0.30087197 
0.1148375 -0.27291146 0.13350968 
0.28063086 -0.22563276 0.2076444 
0.07413305 -0.34371474 -0.02073302 
-0.101035625 0.044799354 -0.13563368 
0.35090575 0.07992605 0.14179729 
0.10522495 0.041980464 -0.052200753 
0.14170508 -0.0016315796 -0.26277605 
0.28430226 0.29642287 -0.1689969 
-0.1802159 0.12509523 0.11344149 
-0.05513887 0.14768606 0.069892205 
0.39137673 -0.1375104 0.052783404 
0.24965742 0.13214442 0.09325991 
-0.17734055 0.04927065 -0.16386911 
0.0913531 -0.20599404 -0.06962906 
0.18088333 -0.120767415 0.22993076 
0.0034551413 -0.30353987 -0.023081388 
0.37339655 -0.023314333 0.14430025 
-0.11174214 0.014297426 0.1268427 
0.08592231 -0.5049131 0.16960151 
0.22101231 0.08756536 0.18140398 
0.055809077 -0.40056926 0.03694032 
0.33759734 0.15918747 0.11911687 
0.1422689 0.13030145 0.00026348568 
0.18841214 -0.21680833 -0.11008654 
0.018240022 0.15478563 -0.15271826 
0.24255523 0.34607175 -0.1647117 
-0.080174044 -0.47526336 0.29931754 
0.20061131 -0.1842509 -0.052712154 
0.029090304 -0.19450071 0.013234078 
-0.04233488 -0.10499463 0.14875396 
-0.16226959 0.0017968955 0.045277692 
0.42987126 0.14944917 -0.045799494 
0.2753665 -0.31348833 -0.015486 
0.09077105 0.14082986 0.034959026 
0.3556414 -0.03271453 0.16426733 
0.24902609 -0.11874649 0.23968087 
-0.1902315 0.120653234 0.06631656 
-0.32587636 0.12049875 -0.05580623 
0.20630121 -0.12628633 -0.17713681 
-0.022933194 -0.02115835 0.108630985 
-0.060623154 -0.44626334 0.25040594 
0.37262022 0.07359205 -0.14010291 
-0.14558841 0.14185204 -0.2009716 
-0.17249994 0.13926186 0.048643336 
0.109464645 0.07012886 -0.016110897 
0.41330898 0.13574995 0.029081902 
0.13209993 0.071076855 -0.02243256 
0.21281019 -0.39696267 -0.021332921 
-0.10683654 -0.5066305 0.059044328 
-0.20419663 -0.021159299 0.022180965 
0.016274752 -0.5204254 -0.026615078 
0.0037136737 0.16166776 -0.15500891 
-0.07183658 0.21500981 -0.15691215 
0.09604873 -0.18338738 0.2814466 
-0.2354855 0.053174462 -0.006498815 
-0.054517508 0.22636473 0.08640868 
0.2285619 -0.029696934 -0.15718204 
-0.102311455 -0.058552902 -0.11836831 
-0.104641125 -0.5520371 -0.048301686 
-0.12301996 0.003250031 -0.14389548 
0.3032764 -0.26573828 0.021670349 
-0.08093915 -0.5610063 0.038383294 
0.016879799 -0.57424474 0.087051995 
0.041790742 -0.5243198 0.15467748 
0.0750481 -0.26203957 0.04861466 
0.29436722 0.36729193 -0.05119625 
0.26613387 0.15856303 0.03510572 
0.2612059 0.27008304 -0.15530255 
0.3274403 -0.2115204 0.08630862 
-0.012356947 -0.3104305 -0.022262951 
0.05819802 -0.17707756 -0.04410821 
0.027738156 0.13951619 0.11125369 
0.25291753 -0.094672054 0.01723985 
-0.16664435 0.02028365 0.12398789 
0.38974875 0.03313882 0.11057625 
-0.10664112 -0.11458548 -0.08053111 
-0.16903067 0.14713128 0.06006913 
0.118982345 -0.4470098 0.23914412 
0.4120541 -0.10161154 0.08913049 
-0.36550668 0.16011515 -0.101545125 
-0.02404376 0.29409936 0.0010831103 
-0.105181076 0.11802645 -0.17611286 
0.14565645 0.09262227 0.24488765 
0.0068164985 -0.2756463 0.0034092648 
0.25760138 0.3085464 0.026552675 
-0.09061428 0.15736972 -0.18893822 
0.13569058 -0.44534943 0.17555489 
-0.0783376 -0.4775817 0.1369936 
0.41600698 -0.100544736 0.044599235 
0.33115283 0.3100794 0.00070492225 
0.053511664 -0.38819897 0.08497838 
0.24672808 0.2685165 -0.20041233 
0.0057056444 -0.5539173 0.15077214 
-0.08875161 -0.079518236 -0.05652896 
-0.11302352 0.29712012 -0.008215115 
0.20292181 0.2663677 0.0856088 
0.3533337 -0.089816354 0.17305413 
0.42605153 0.12149104 -0.057284296 
0.09371757 0.1470577 0.01744164 
-0.1099962 0.31425223 0.03389716 
0.42986143 0.13938083 -0.008883568 
0.33875635 0.30811974 -0.017928641 
0.097422615 -0.45607495 -0.03737016 
-0.08978413 0.09219585 -0.16808587 
-0.035070013 -0.09688385 0.15124923 
0.026371771 -0.38264447 -0.118626334 
0.26059064 0.32852536 0.047267396 
0.038846932 -0.2359613 0.036522735 
0.42283493 -0.08800867 0.08644124 
-0.15135787 0.161292 0.027015803 
0.115068056 -0.12512057 0.12739474 
0.082795255 0.10014775 -0.1697431 
0.2726283 0.26112986 0.04712489 
0.115535565 -0.23582575 0.16481246 
0.2541527 0.034792326 0.22607952 
0.20543993 0.18898503 0.14287546 
-0.18346399 0.08525228 -0.09003211 
-0.20150313 0.041175332 0.08348178 
0.25494844 0.051157694 -0.22926122 
-0.10219939 0.29104733 -0.09047131 
0.14234357 -0.011978085 -0.22907425 
0.16749845 -0.2424988 -0.12297813 
0.004527667 -0.37398076 -0.0004294926 
0.18889415 -0.18109506 0.013356629 
0.00016977402 0.20873713 -0.20372161 
0.12993863 -0.48790875 0.0044543715 
-0.19412096 0.111274175 0.07107689 
-0.09173021 0.26963606 -0.22370097 
-0.018258866 -0.10338067 -0.06842302 
0.11501854 -0.19244766 0.17477204 
0.3113598 0.25489393 -0.046890263 
0.14180921 0.0919141 0.20620172 
0.16969939 0.104656525 0.0010228687 
-0.21603021 0.100128934 -0.106476225 
-0.13592966 0.22220555 -0.13764685 
0.04008738 -0.56046575 0.16137335 
-0.020489357 -0.46248478 0.0050568837 
-0.2283271 0.1144438 0.012591776 
0.17698807 0.10465812 0.11758324 
0.301358 0.23949008 -0.009542012 
-0.016257063 -0.25476548 0.16979343 
0.17734802 -0.3869748 0.18562315 
-0.08803681 0.3356026 0.07991515 
0.28096804 0.3748555 -0.12043237 
0.07686704 -0.12437632 0.1600911 
-0.17734341 -0.014986506 -0.06814109 
0.23188144 -0.058875743 0.124488674 
0.13236916 -0.20408706 0.1975666 
0.011946465 -0.09643096 -0.08477092 
0.09165708 -0.2476089 0.23437066 
0.098351195 0.13873358 0.05548726 
0.21270508 0.2104186 -0.23454736 
0.10726497 -0.47556928 0.20252046 
0.06118814 -0.49258083 0.11989397 
-0.046323817 -0.46932644 0.10215526 
-0.13892975 0.048062954 -0.1533294 
-0.071121335 0.14846094 0.067395695 
0.24216904 0.18203399 -0.18603668 
0.27210972 0.27221578 -0.1775269 
0.12959357 0.15687105 0.19511338 
0.1657638 -9.12884e-05 0.2686995 
-0.26839513 0.0077225436 0.0121258795 
0.029983431 -0.37589374 0.058429416 
0.32057738 0.3548411 -0.09729954 
0.24431428 -0.10340328 0.24289353 
0.06840234 -0.3606273 0.14491656 
-0.07367319 0.3154953 -0.11887599 
0.16186494 -0.1502976 0.23067895 
-0.29981473 0.19922544 -0.043599065 
-0.28287938 0.14474261 -0.03523213 
0.36849543 0.16625524 0.080309264 
0.25154075 0.30860835 0.06753726 
0.121707685 0.06302719 -0.0020197954 
-0.14428198 -0.028711518 -0.12824534 
-0.0767569 0.14012343 -0.1481888 
0.23788416 0.35041338 -0.03410938 
-0.04087769 -0.344122 0.12257071 
-0.04902502 -0.51762295 0.24745072 
0.23189238 -0.07331579 -0.2216226 
0.109191276 -0.30543914 -0.10243899 
-0.05567682 -0.111824945 0.08619975 
0.13371763 -0.4652232 0.08511261 
-0.0790292 -0.39931467 0.28932384 
0.201496 0.3162829 0.08514536 
0.24322931 0.15175165 0.18860045 
0.18461269 -0.085538656 -0.2416125 
-0.08946737 0.346824 0.0303569 
-0.27662212 0.06648741 0.12295265 
0.09120614 0.18560673 0.043377705 
0.3119489 -0.02676578 -0.1858429 
0.29586944 -0.010932488 0.20974015 
0.1492474 -0.22680628 0.038429737 
0.22216234 0.02362903 -0.20552813 
0.026387721 0.1746604 0.06512584 
0.35066238 0.12544061 0.12341207 
0.2696732 0.13804537 -0.06281283 
0.17378324 0.080080904 0.24202651 
0.2847427 0.06331417 0.20128937 
0.07946266 -0.514386 0.13672076 
0.023548955 0.1036649 -0.1359918 
0.35618693 -0.08389593 0.1700356 
0.26669553 0.18981896 0.15532228 
0.3567806 0.2036919 -0.13922529 
0.14081943 0.05485778 -0.1547737 
0.21576338 -0.36542657 0.08127694 
0.03743963 -0.340114 -0.1029426 
0.33116478 -0.24454965 -0.071631335 
0.3105774 0.24093768 -0.085495874 
0.08898109 -0.10913676 0.16253129 
0.29090112 0.26173764 0.085144565 
-0.022186289 -0.17297111 -0.056952186 
0.2772886 0.14790574 -0.09734088 
-0.12764142 -0.4765066 0.23213585 
0.39585203 -0.058871046 -0.08732178 
0.21313319 0.33076087 0.030467888 
-0.06442057 -0.33771995 0.082113475 
0.25833216 0.19677949 0.15572675 
-0.05619936 -0.106827915 -0.06674974 
0.28196973 0.19991267 0.031261124 
0.15659148 0.037756793 0.24666148 
0.21131411 -0.024684187 0.21872762 
0.41719428 0.08136545 0.049425367 
-0.37378502 0.15505174 -0.0805368 
0.30246562 0.3384935 -0.0074285096 
-0.054825734 -0.34199032 0.093903065 
-0.24479586 0.03772264 -0.15942165 
0.254192 0.21400362 -0.17145833 
0.23438324 -0.045563705 -0.13889217 
0.3332091 0.14428705 0.13145117 
-0.15423124 0.17428088 -0.19972953 
0.15819407 0.12719972 0.048587613 
0.15268618 0.007992542 0.038575992 
0.3321204 0.09333038 0.15518877 
-0.23321155 0.082096875 0.00045187774 
-0.16609669 0.1255317 0.103252955 
0.06026767 -0.19160353 0.26895198 
-0.15518911 0.12109749 -0.0964905 
-0.11345355 0.17973807 -0.085852414 
0.08926223 -0.33631444 -0.06565061 
-0.22317168 0.05828228 0.0012924309 
0.17743514 -0.20931704 -0.035613876 
0.04350045 -0.3898358 0.046021305 
0.06773744 -0.34690958 0.02308749 
0.43981507 0.0057894955 -0.019305168 
0.19269732 -0.18421447 -0.0154623585 
-0.0025868898 0.230484 0.042053867 
0.003983899 -0.431159 0.0005228706 
0.32415646 -0.0028033203 -0.18055215 
0.36077407 -0.1358781 0.16982558 
0.40231165 -0.1304868 0.033193 
-0.095688686 -0.06020185 0.0856547 
0.08284099 0.03801681 -0.11436223 
0.14879869 -0.0127964225 0.25296104 
-0.055268638 0.27936608 -0.21482281 
0.34954184 0.1813824 0.093014255 
0.2611196 0.16263187 0.092284106 
0.008698313 -0.13518457 0.15987173 
0.24743922 0.36255184 0.015472561 
0.14081629 -0.26610085 -0.060332704 
-0.25639835 0.115798295 -0.013133484 
0.1770892 -0.076660246 -0.20275702 
0.275614 -0.19792204 0.21563935 
0.18027824 0.27379236 0.13669841 
-0.09548943 -0.55517656 0.03299285 
-0.10217335 0.0470826 -0.118166335 
0.39146695 0.17501915 -0.105949394 
-0.3480959 0.14701009 -0.06876469 
-0.15439671 0.011780549 0.12604795 
0.021490505 -0.13485813 0.058040906 
-0.04808451 -0.52342653 0.22592096 
0.40486288 -0.07408074 -0.06963015 
-0.11766694 0.30790415 0.08385478 
0.06236527 -0.18626496 0.2742269 
-0.19116445 0.109108366 0.07159612 
0.22875272 -0.33102486 0.111691765 
0.27807486 -0.0019454908 0.21985918 
0.12685916 0.062164646 -0.029219374 
0.11527181 -0.17170681 -0.06884276 
0.029990168 -0.5565085 0.0065509984 
0.18356219 -0.15413117 -0.17341328 
-0.07140074 0.23780096 0.08362202 
-0.19857804 -0.042115167 -0.044815112 
0.095321976 -0.32903698 -0.06845935 
0.20013353 0.051285 -0.0993647 
-0.059634406 0.3331707 -0.0118060615 
-0.036044978 0.15965421 -0.15446402 
0.15235539 0.042252816 -0.266445 
0.04547463 -0.45390105 -0.06333795 
0.044226915 -0.44081366 -0.07344581 
0.1395791 -0.45394668 0.09730987 
-0.061965466 0.27702466 0.015066933 
-0.0889959 -0.51860875 0.19278033 
0.22119315 0.3412058 0.05637081 
0.23756544 0.14902806 -0.19450393 
0.27047563 0.18300441 0.0767729 
0.22735493 -0.00052091223 0.20846336 
-0.15252766 0.08823353 0.11090579 
0.20934464 0.15399061 0.20091516 
0.3529914 0.08167876 0.13900542 
-0.0124948425 0.18582089 0.095735624 
0.20370787 0.146585 0.2063509 
0.2032806 -0.107862264 -0.22221844 
0.15584964 0.090156436 -0.11086788 
0.017438894 0.23269017 0.02981711 
-0.15684554 0.022168478 -0.14491904 
0.19914195 0.27478495 0.1340411 
0.030411663 -0.11003366 -0.08238721 
0.24399808 0.35988006 -0.14497168 
-0.3231692 0.123338826 -0.021859204 
0.38817382 0.24666771 -0.019222444 
0.30669034 -0.2770343 -0.03410317 
0.14049998 0.12596622 0.11224664 
-0.0929981 -0.5566139 0.03112218 
0.22025895 0.108593725 -0.24218899 
0.30152732 -0.2569174 0.060922474 
-0.26429567 0.008888634 0.027486563 
0.29680148 0.008670664 -0.20263116 
0.09964897 -0.3169838 0.26561585 
0.08783858 0.14706695 0.04498055 
0.08449812 -0.2757529 0.16986135 
0.024696782 -0.5481531 -0.0021529323 
-0.034835115 -0.49837697 -0.061985727 
0.112111926 0.050858427 -0.084298395 
0.07987228 -0.52349967 0.16230336 
-0.0070746406 -0.34227774 0.182587 
-0.29369685 0.18715319 -0.06936662 
0.086911574 -0.3091704 0.27101928 
0.14441991 -0.23793766 -0.13676257 
0.18511471 0.043144006 0.25574255 
0.22853063 0.026707906 -0.09056944 
0.010415946 -0.33959296 0.14126174 
0.24103995 0.20103848 0.161896 
0.073212 -0.493264 0.113851525 
-0.03914198 0.21678753 -0.15343665 
0.02776145 -0.44101718 0.27319288 
-0.015374068 0.120197915 -0.17657204 
-0.34413177 0.10666523 -0.015068132 
0.25678983 0.11490014 -0.22663684 
0.042422183 -0.17616472 -0.04383161 
0.14602566 -0.33435065 -0.109199926 
-0.07710815 0.20758934 0.05545334 
-0.06471253 -0.3240884 0.005577797 
0.0069705923 -0.26927778 0.17187877 
0.17481163 0.18049097 0.15798222 
-0.25776845 0.12454005 -0.039872438 
0.2828208 0.2397247 -0.19266012 
-0.008218874 -0.13269506 -0.05880595 
0.2115788 -0.2106615 -0.17183122 
0.24859364 0.122328684 -0.19270542 
0.21679874 -0.008698714 -0.13378994 
0.14860126 -0.053916086 0.27709663 
0.10071565 -0.213863 -0.017095389 
-0.091606304 0.12949647 0.097755 
0.13150926 0.11615689 0.21634687 
0.08678336 -0.15105726 -0.0735585 
0.1656063 -0.0048799715 -0.26047796 
-0.10466531 0.26192838 -0.17721254 
-0.12581545 0.16050388 -0.09556819 
-0.018049024 -0.022799868 0.12007339 
0.22141297 -0.38547015 -0.015772887 
-0.019810587 0.2717842 0.07842603 
0.045649145 -0.40969473 -0.09503812 
0.29848424 -0.28774166 -0.033299297 
0.33202544 0.2794519 0.034575902 
-0.2935753 0.19178095 -0.060163952 
0.2715902 0.10635232 -0.21987756 
0.039768904 -0.112820156 -0.06853144 
0.29777488 0.27480713 -0.12582467 
0.16249125 -0.2050587 0.052855216 
0.020287346 -0.10650426 -0.06728867 
0.09632105 -0.49177107 0.19682713 
0.22098461 0.24643722 0.13960491 
0.24932596 0.22493373 0.09596713 
0.15996155 0.1211911 0.113782614 
0.2075485 0.09047743 0.08821999 
0.13477066 0.12066083 -0.06758695 
0.33553502 0.16245304 0.11925355 
0.28766313 0.28918588 -0.16594873 
0.040661544 -0.29467016 -0.022598712 
0.10141029 -0.5325497 0.029422214 
-0.2248162 0.0071920613 0.04729788 
-0.07048674 0.25216287 -0.032471795 
0.2537471 0.27374327 0.10019756 
0.17978857 -0.017469348 -0.03203524 
0.15496546 -0.43709528 0.11419668 
-0.16886018 0.10902189 -0.07486854 
0.028553363 -0.18359283 0.062620685 
-0.22383308 0.07213646 0.053158976 
-0.015014814 0.1584878 -0.18909073 
0.17479554 0.014245578 0.07768335 
0.117090166 -0.23833588 -0.14378567 
0.25732622 -0.02600413 0.2345758 
-0.28684607 0.13085048 -0.085510895 
0.084437884 -0.21712165 -0.066009164 
0.060008314 0.22628473 0.07545666 
-0.09118196 -0.5106736 0.06961996 
0.34048852 0.29499677 -0.11701371 
0.11005928 -0.509604 0.069617495 
0.016200723 -0.3524339 0.22031607 
0.1665551 -0.2639846 -0.15319976 
-0.33073115 0.19449966 -0.0958725 
0.05812767 -0.15153043 0.10300101 
0.18566255 0.24915214 0.10733272 
0.3059256 -0.2697132 -0.0047470448 
-0.28126723 0.15244345 -0.00038218108 
0.29880267 0.23577082 0.10102701 
0.13605344 -0.21458235 -0.07196584 
0.061421346 -0.50550884 0.11737499 
0.063469894 0.09699189 -0.0041981926 
-0.07212787 0.30771908 -0.14583139 
0.12776181 -0.4151185 0.24016486 
0.18510242 -0.39378753 0.1030998 
0.11253703 -0.4179412 -0.059762258 
0.11194504 0.08236588 0.08605061 
0.11968962 -0.4664864 0.17557734 
0.005411442 -0.099128954 -0.10872709 
0.31233716 0.249144 -0.07417028 
0.16325499 0.0080907 0.26679417 
0.08555053 -0.51691824 0.15883414 
-0.095203705 0.29696432 -0.109599784 
0.10704601 -0.28305402 0.067496665 
0.35062987 0.1275129 -0.16084498 
-0.35798743 0.17021994 -0.101248205 
0.38998243 0.19443978 -0.102760874 
0.16361964 0.031965133 0.22153452 
-0.20296499 0.005309438 -0.06491983 
-0.103398316 -0.03657574 0.13720158 
-0.24663341 -0.0051288535 0.0145900175 
0.3861633 0.1752143 0.049714215 
0.39968583 -0.038939334 0.115341395 
0.030093657 -0.13438202 0.16066872 
0.36194414 -0.14827718 0.15992317 
-0.20483147 0.09026636 0.07492972 
-0.3371851 0.21687527 -0.034605958 
-0.1624245 0.08264849 0.111720055 
0.20662054 -0.34053922 0.2117614 
-0.051549345 -0.38443974 0.26661432 
-0.111903615 -0.06468621 -0.11639141 
-0.20343027 0.16875443 0.05957078 
0.07099217 0.21744871 0.08157369 
0.35498708 -0.18754219 0.024605777 
0.27118978 -0.02960995 0.22734286 
0.049305797 -0.57396966 0.11720487 
-0.35790002 0.17584826 -0.08184754 
0.12614858 0.14737287 -0.020398164 
0.092856705 -0.44795844 -0.04601128 
0.055824216 0.22994365 0.046000056 
-0.32212034 0.11330976 -0.08435856 
-0.0047816853 -0.2409238 0.13189895 
-0.14298868 -0.4975453 0.11412712 
0.2784885 0.15555078 -0.082927026 
-0.010694817 -0.41973847 -0.064969525 
0.053135574 -0.4832981 -0.037847616 
-0.031401247 0.21544176 -0.12926948 
-0.058794558 0.3167771 -0.07494228 
0.19636346 -0.1958759 -0.07370489 
0.27850416 0.38215524 -0.056978427 
-0.1336415 0.09948425 -0.13506266 
0.3057671 0.26187605 -0.11760102 
0.22847702 -0.0015276019 -0.15701024 
0.027867064 -0.17325741 0.094753586 
0.1510516 0.020640243 0.036423344 
0.25478652 -0.31103033 0.08969862 
0.17254582 -0.34608626 -0.0864076 
-0.109892644 -0.02723765 0.08868914 
0.20194693 -0.16587175 -0.1606549 
0.36921751 -0.15097523 0.11630986 
-0.11598187 0.112661265 0.07315493 
-0.26920903 0.05164516 0.026853492 
-0.07052643 -0.49942547 -0.03115116 
0.035461523 0.17790668 0.09874938 
0.2395464 0.11819104 -0.23401172 
0.108876534 -0.31389856 0.11954367 
0.1858211 -0.3756634 0.1856932 
-0.12981197 -0.48262674 0.21960834 
-0.10176257 -0.0064293407 -0.13662507 
0.16539206 -0.1186176 -0.22983108 
0.2044359 -0.19727066 -0.13950484 
-0.27329433 0.071843915 0.119933896 
-0.084435716 -0.023442464 -0.09523414 
-0.30265522 0.19166096 -0.01566025 
-0.17722863 0.09325987 -0.091094606 
0.19207437 -0.38201004 0.104277745 
0.16106541 0.024005447 0.2622524 
-0.009995417 -0.42328262 -0.10087045 
0.12837923 0.1253469 0.20976934 
0.046041884 0.13617946 0.11246963 
0.16324548 -0.37288883 -0.06945302 
-0.09664219 0.054349538 -0.13837013 
0.43128633 0.09635033 -0.04727937 
0.04279506 -0.56070775 0.16284308 
-0.15574962 0.15124689 0.012258908 
0.1415989 -0.21894507 0.08736052 
0.24031085 0.10469037 0.085598156 
0.16674292 -0.39749154 0.19835085 
0.23343813 -0.11975176 0.020334488 
0.081811525 -0.5254386 0.14638235 
-0.09634192 0.039798997 0.1127869 
0.11209111 -0.41789132 0.2458425 
0.30133167 0.24354833 0.003917365 
-0.024569025 0.2056655 0.09142205 
-0.16591853 0.21764697 0.01634337 
0.28498086 -0.29246145 0.013427226 
0.1745753 -0.019670859 0.009905111 
-0.033159725 -0.3267321 0.05212957 
0.27545905 -0.133819 -0.17721148 
0.03085067 -0.34802333 0.28352305 
-0.0013582122 0.15766937 0.106766604 
-0.025826413 0.11328343 -0.17435022 
-0.06518308 -0.06273925 0.08279775 
-0.0016441024 -0.15589231 0.074333 
0.0912808 0.16454625 0.048762687 
-0.009099327 -0.4512618 0.28381583 
0.22491266 0.021253608 0.13561276 
-0.0344271 -0.54409504 0.15361817 
0.118825085 0.029667694 -0.05019423 
0.18988624 -0.027279567 -0.033249903 
0.03451097 -0.15006773 0.036758747 
-0.017020142 -0.35073262 0.2610979 
-0.14836602 0.16727597 0.03404456 
0.14421421 0.11072502 0.19859008 
-0.006824093 0.234849 -0.17375897 
0.23864937 0.3630675 -0.05471004 
0.1527125 -0.2630905 -0.10795871 
-0.030788463 -0.24918975 0.13362962 
0.07060866 -0.3818646 0.2664522 
0.2054304 0.06772259 0.23661225 
-0.13445705 -0.48254234 0.2503736 
-0.07640131 0.20854066 -0.15827087 
0.11018965 -0.26683572 -0.029362347 
0.051104926 -0.1587644 0.05250521 
0.1652849 -0.41058427 -0.037498284 
0.3267269 0.06644542 0.16913444 
0.2588467 0.19057018 -0.17527483 
-0.22981925 -0.012436428 -0.037225015 
-0.22339763 0.028472394 -0.10257298 
0.019245926 -0.22373675 -0.03502073 
0.3836707 0.18126205 -0.11472067 
0.211655 0.037446946 -0.111503534 
-0.075111635 0.2937511 -0.20679428 
0.0035165942 -0.11463968 0.084290795 
0.22178005 0.35283795 0.02672363 
0.31335405 0.33045456 -0.009779009 
0.18523024 -0.09704173 0.26569277 
-0.045030244 -0.07110461 0.110727474 
0.053111397 -0.12669659 0.12583189 
0.15733416 -0.26587293 0.25256717 
-0.05964877 -0.32151106 -0.009102592 
0.38140973 0.11197332 -0.1286452 
0.013371904 -0.34469134 0.2501533 
0.04788621 0.17426455 -0.18226059 
0.27099285 -0.101535976 -0.19296846 
-0.19777991 0.10467518 -0.185564 
0.1372111 0.0057205716 -0.100723535 
0.11733328 -0.22066064 0.0063753533 
0.23780763 -0.089985654 -0.21441455 
0.09148223 -0.14509849 0.13064711 
0.35468367 -0.19615228 -0.0042769155 
0.04353153 0.055598807 -0.13020657 
0.19634482 0.21204567 -0.20963411 
-0.019693105 -0.3676751 0.29495102 
0.39409685 0.013324967 -0.10619987 
0.18234994 0.075937524 -0.22034922 
0.066085175 -0.27800408 0.0050156354 
-0.016911434 -0.57391375 0.055991065 
-0.06087431 -0.1451088 -0.06330103 
0.33752277 0.1692127 0.11330614 
0.23643109 -0.22944385 -0.14664178 
0.14939535 -0.26097438 -0.08252965 
0.27058333 -0.32579947 -0.036382828 
0.35965785 0.22834313 0.04448182 
-0.24297036 0.054030716 -0.11340484 
-0.046916332 -0.13491559 0.020263009 
-0.2199433 -0.031941198 -0.094874606 
0.2072064 -0.36197227 0.13357301 
-0.17085569 -0.044784416 -0.03725103 
0.2765413 0.18074615 0.15486543 
0.24113908 -0.18113737 -0.17441319 
0.13556904 0.08784676 0.020322096 
0.25866073 0.098017424 -0.09687354 
0.1917271 -0.24555929 -0.15665025 
-0.09523855 -0.46075526 0.10660999 
0.2397036 0.25611392 -0.21202749 
0.19327962 -0.124553025 -0.2275776 
0.1745985 0.2089818 0.14032328 
0.13438343 0.066153854 -0.050471634 
-0.32512456 0.16309834 0.010177651 
-0.043265924 0.3363514 0.049832206 
-0.14538752 0.14996696 -0.04085095 
0.07836769 -0.18898337 0.014505449 
0.03769862 -0.345351 -0.006634649 
-0.26783943 0.06941155 0.011583024 
-0.20492147 0.06584674 0.114009224 
0.21993054 -0.2155777 0.23656662 
-0.086242266 0.28619644 -0.19755077 
0.11770346 -0.41015548 0.24480408 
0.05802708 0.17083535 -0.1600751 
0.24897262 -0.30167502 0.120153576 
-0.18692175 -0.04915515 -0.06315843 
0.16064292 -0.20350681 0.06698739 
0.4058957 0.19359282 -0.079514615 
0.3009746 -0.13023476 0.21107374 
-0.012224461 0.15108554 0.088113666 
0.06451084 -0.49709016 -0.02190041 
-0.08691993 0.18977192 -0.2162656 
-0.0102008665 0.21556982 -0.2069307 
0.0167643 -0.17903355 0.037670735 
-0.09157002 0.3541816 0.068438515 
0.03134846 -0.52848905 0.12976845 
-0.10618476 0.100919165 0.094494775 
-0.37228248 0.17821474 -0.006055185 
0.28535193 0.2766188 0.075576514 
-0.22648585 0.06017314 -0.014778249 
0.036649734 -0.36014315 0.28046304 
0.12317979 -0.4600013 0.1826664 
-0.24799488 0.10079305 -0.07547364 
-0.042843577 -0.05351364 0.14239293 
0.39275768 -0.020577777 0.120451555 
-0.36894614 0.1140931 -0.07444121 
-0.087209545 0.30595627 -0.12374523 
0.16979519 -0.058456343 0.23485292 
-0.059241723 0.30015132 -0.1423623 
0.13636164 0.04212441 0.13388574 
-0.24819677 0.0069078053 0.059937365 
-0.07573628 -0.04870758 0.14044781 
0.07986265 -0.27352664 -0.13335073 
0.21825534 0.12689106 -0.24134754 
0.21224253 0.20863369 0.16927668 
-0.20236628 0.09227954 0.121517725 
0.23951146 -0.06835993 -0.11422224 
0.02742361 -0.14927058 0.16307569 
0.42763656 0.07741744 0.03012702 
-0.07036603 0.3428859 -0.0010955974 
0.3253865 0.28746173 -0.06467668 
0.049777344 -0.2356213 0.25348294 
-0.110453345 0.17293046 -0.21129811 
0.10803212 -0.31661922 -0.0861952 
-0.016500466 0.26571178 0.07973262 
-0.1899856 0.028855443 -0.11212891 
0.3236065 0.14294681 -0.18225123 
-0.14557353 0.26466706 0.09156685 
0.2654788 0.09914229 -0.1528938 
0.14949173 -0.46529722 0.04060629 
0.21647498 0.33771223 0.023886364 
0.19662413 0.084675066 -0.25084504 
0.1765371 -0.13162717 -0.18506981 
0.22656898 0.24028713 -0.22146584 
0.19973518 -0.04128927 -0.05253123 
-0.02441008 -0.107899904 -0.10652873 
-0.07290786 0.19828385 -0.20433493 
0.07766851 -0.53746414 0.123487875 
0.15047555 -0.4482962 0.0958321 
0.18652624 0.09416975 0.0227952 
-0.10459495 0.20588462 -0.035373826 
-0.17490152 0.11018991 -0.042419687 
0.021970376 -0.4196996 -0.045068655 
0.050143953 -0.37224796 -0.008640769 
0.28735328 0.3297262 0.002853755 
0.15423737 -0.44888654 -0.012898349 
0.44196692 -0.062529504 0.046672475 
0.11660376 0.031637903 -0.0034251874 
-0.27128503 0.16285624 -0.055388235 
0.19586766 0.20747246 -0.22035886 
-0.05750831 -0.2812991 0.17605348 
0.090158805 -0.4909484 -0.013872539 
0.13198382 0.10061297 -0.1597169 
0.11028207 -0.33862904 0.025904112 
-0.14467041 0.1985926 -0.1697879 
0.26471326 -0.28452837 -0.08481798 
0.11276706 0.052481577 0.066577025 
0.18713288 -0.055348136 -0.20530483 
-0.09847039 -0.5402149 0.08699037 
0.1465658 -0.30201334 -0.13347706 
0.056681506 -0.34361735 -0.005494437 
0.39561716 0.18530457 0.02694292 
0.22343451 -0.05555495 -0.01979023 
0.2149139 0.27201322 -0.17293976 
-0.069654174 -0.3363304 0.07078414 
0.39756736 -0.009558416 0.111356065 
-0.13738218 -0.010831068 0.070613936 
0.18461761 -0.16211353 -0.16927886 
-0.037131835 0.24909721 -0.20369357 
0.13079257 0.1642762 0.09914951 
0.1728832 0.25455433 0.15616356 
0.018862322 -0.22741406 0.0063065593 
-0.20244727 0.065323345 -0.071134806 
-0.02502083 -0.22675918 0.16197965 
-0.008969167 -0.54485357 -0.019511808 
0.19219989 0.010773425 -0.21458273 
-0.11582153 0.18080904 0.059611797 
-0.05332033 -0.43968454 0.2393073 
-0.22585638 0.14340411 0.09884517 
0.23056209 -0.16129084 -0.11238496 
0.30710068 -0.081289746 0.20776331 
-0.12839162 -0.45442015 0.115468994 
-0.14214264 0.20480919 -0.1625974 
-0.09044604 0.2886213 -0.16537535 
0.20195292 -0.30220988 -0.10675069 
0.17407031 -0.057844494 -0.09188076 
0.050875816 -0.38312 0.096897274 
0.22997488 -0.0560284 0.0033030205 
-0.0543337 0.19721791 -0.20186415 
-0.06216282 0.2828238 0.036404528 
0.051498394 -0.16569118 0.02591339 
0.039779224 0.24359867 0.08317307 
0.15914433 -0.006915494 -0.0155154355 
0.026117474 -0.536615 -0.010116071 
-0.0044075614 -0.10142433 -0.109348714 
0.18181095 0.18284377 0.19410115 
-0.014745683 -0.5069006 0.1201251 
-0.09223494 -0.020735946 -0.11786456 
-0.033064842 -0.48158717 -0.0031930523 
-0.06702225 0.34015802 -0.0032404838 
0.16561674 -0.21621205 -0.001062997 
-0.16076733 -0.03389257 0.10281162 
0.27771154 -0.2764715 0.103806585 
0.00899595 -0.51536834 -0.03350249 
-0.32609707 0.2188234 -0.0540935 
0.039585415 -0.46266755 0.2663135 
0.32533026 0.22159834 0.088912755 
0.110109374 -0.40470487 0.24851833 
0.3031151 -0.22940111 0.15032692 
0.26651293 0.2821719 -0.13808383 
-0.13284089 0.15991083 -0.06470191 
0.13559377 0.1184635 -0.07336453 
0.061684903 -0.37905616 0.11155935 
-0.20812431 0.08154312 -0.037215173 
-0.102119476 0.047586046 0.09544581 
0.1509846 0.083908275 -0.15488438 
0.364854 0.018968917 0.1446424 
0.10820545 0.10251369 0.11593297 
-0.09284537 -0.0141716665 -0.09778396 
0.03473279 -0.12915084 0.12136425 
0.08525748 -0.49018085 0.12791564 
-0.31786525 0.11450172 -0.02456727 
0.16173032 -0.13847475 -0.22591124 
-0.33942822 0.13226126 -0.02768737 
0.16751762 0.033328213 0.22041173 
0.14929053 -0.076924644 0.27533984 
0.25268474 -0.08574347 -0.20850138 
0.09541652 -0.47060424 0.24499258 
0.07096342 -0.37316233 0.030016128 
0.2862671 0.217089 -0.19165824 
0.3231684 0.24580538 -0.14341304 
0.3833877 0.16849087 0.058495667 
-0.25866544 0.07894459 0.01803039 
-0.12162406 0.1332117 0.06889599 
-0.14656535 0.22188318 -0.07857217 
0.120711274 -0.28747192 -0.041249838 
-0.22244522 0.13015111 0.033668816 
-0.2524419 0.041012913 -0.10478025 
0.08422987 0.17753561 0.04537489 
0.1073771 -0.18918645 0.2780675 
-0.211875 0.13113849 -0.02274453 
-0.27867925 0.03886564 0.036264084 
0.25158644 0.056749552 -0.23095265 
0.32466537 0.32088175 -0.11736842 
0.1912814 0.129558 0.17994203 
0.18110771 0.07044982 0.1245097 
0.05060917 -0.17722982 -0.023094472 
-0.03488671 -0.33160496 0.17564718 
0.15790758 -0.19349436 0.26363257 
-0.044563297 -0.13248149 -0.094040476 
-0.17826213 0.20561017 0.044581395 
-0.061381727 -0.53736746 0.15598096 
0.04081712 -0.56009656 0.16343676 
0.1846667 -0.24950825 -0.15661101 
0.2891578 -0.28757364 0.011039019 
0.09023464 -0.19819333 0.013777398 
-0.03437319 -0.32429108 -0.01900064 
0.067195974 0.08717339 0.0865653 
-0.04817081 0.21994868 -0.17420709 
0.32334056 -0.2627238 -0.061832804 
-0.103777036 0.109319545 0.09925027 
0.15121143 -0.11125504 0.23913388 
0.24212475 0.18360935 -0.1857083 
-0.04105147 0.23838788 -0.21543814 
-0.036836844 -0.46240047 0.08203354 
0.07771145 -0.5292928 0.1520482 
0.32914895 -0.16531432 -0.120207265 
0.06726842 0.15681554 -0.17899737 
0.24029854 0.10287799 0.07979645 
-0.151286 0.088249825 -0.17654224 
0.07107882 0.11810468 -0.13265789 
0.15328263 -0.25779173 -0.08956104 
-0.045353074 -0.41892576 0.25966427 
-0.19357543 0.19396833 0.091013096 
0.36960727 0.1173344 -0.14217061 
0.014634959 -0.20729403 0.044482853 
0.35696322 0.250236 0.026950108 
-0.22248043 -0.018519836 -0.048758164 
0.1971295 -0.0377678 -0.04816922 
0.23683973 0.12148777 -0.19839822 
-0.1826179 -0.00082171767 -0.02739217 
0.2862055 0.10253897 -0.21195522 
0.20401527 -0.14389536 0.073365204 
-0.026998302 0.19988929 -0.16759005 
0.23507836 -0.1599206 -0.12874614 
-0.042562667 -0.16060516 -0.06954451 
-0.38711798 0.14975892 -0.036626678 
-0.17177689 -0.029539542 0.08756501 
-0.24090831 0.13298103 -0.05654324 
0.18484074 0.12358781 -0.21724579 
-0.08192043 0.25278082 0.023334416 
0.1373089 0.09602112 0.21352492 
0.26601493 0.32225505 -0.11765272 
0.09377326 0.11689733 -0.17519104 
0.017919 -0.101421855 -0.08581881 
-0.031783283 -0.5107698 0.27185327 
0.20303358 0.2585587 0.092416726 
-0.1114977 -0.5022114 0.07333995 
-0.07301682 -0.09511744 0.06448591 
0.1321061 0.05176984 -0.09041855 
0.34791473 0.21653274 0.06906646 
0.0123847835 0.26826507 0.03548472 
-0.010451873 -0.1116637 -0.10601921 
0.03048952 -0.5347811 0.24496432 
-0.21647587 0.15673123 0.09184143 
0.2244798 0.038518816 -0.20560119 
0.401681 0.08796577 0.07351824 
-0.002908705 -0.16587828 0.030395431 
-0.17659983 0.017544067 0.0647028 
0.28533602 0.16674775 -0.106376715 
0.016382689 -0.15001893 0.15296976 
0.2829193 0.39315847 -0.09928602 
0.31033525 0.23443338 -0.10458964 
0.20589103 -0.03795553 0.22219202 
0.2574286 0.039397344 -0.22761711 
0.22151901 -0.2344393 0.23226467 
0.04727003 -0.12956466 -0.059676837 
0.058778174 -0.25591773 0.25021765 
-0.13861705 0.1991584 -0.20207185 
-0.0138096 0.0855361 -0.1704899 
-0.22274038 0.06435542 -0.017625926 
-0.09984573 0.3062554 -0.05120017 
0.40150672 -0.15044157 -0.03326838 
-0.027296135 -0.5119754 0.2708017 
-0.027932115 -0.35375857 -0.00980386 
-0.052788574 0.14186727 -0.18376592 
-0.19581337 -0.013407299 -0.13339525 
0.12982269 -0.2717318 -0.16013928 
-0.21882147 0.073928714 0.035959773 
0.18249162 -0.09414559 -0.23938113 
0.4203223 0.16944322 -0.061044786 
0.0799061 -0.24705024 -0.053750094 
0.14802161 0.07368101 -0.23749113 
0.3732104 0.12231588 0.09870903 
0.16254528 0.09726226 -0.056385394 
-0.16202584 -0.023581278 0.11554513 
0.13403958 -0.17688026 -0.17956962 
-0.07861327 -0.31021133 0.11962569 
0.30268747 -0.16952215 0.20679061 
0.20281565 0.20707357 -0.1970042 
0.07511855 0.04317483 -0.1160702 
0.23442188 0.13125671 0.2021806 
-0.14035523 0.08556463 -0.1656006 
-0.06762905 -0.51097906 0.25108013 
0.21101157 -0.12164713 0.118857734 
-0.08922207 0.20337492 -0.11631592 
-0.030481273 -0.08644671 0.09358475 
0.21828878 0.2672279 -0.17167272 
0.0947423 -0.2484032 -0.14532228 
-0.0026985854 -0.32542506 0.15406206 
0.09168974 -0.3416819 0.10236827 
0.21666059 -0.14002348 0.25126225 
0.14250399 -0.07741545 0.27960238 
0.21451393 0.29619494 0.050799035 
-0.01801352 -0.5262579 -0.03664154 
-0.04726177 -0.15767199 -0.0721193 
0.0691703 -0.124914706 0.15996695 
0.41908318 0.14655599 0.010663877 
0.20736282 -0.36321452 0.12846681 
0.011106889 -0.31438527 -0.018925177 
-0.08033231 -0.13056289 -0.06430024 
-0.07235662 -0.114648305 0.049638998 
0.31978422 -0.21816073 0.11170232 
0.07246268 0.083767734 0.03944033 
-0.08067535 0.07636024 -0.1369407 
-0.15284461 0.14161652 -0.035264555 
0.23281163 -0.05652431 0.24843507 
0.20417881 -0.12499681 0.13911738 
-0.051420517 -0.31946653 0.022328688 
0.3094613 -0.27077833 -0.067507 
0.14660852 -0.2068588 0.12101917 
0.009599124 -0.55272734 0.16381522 
0.12707089 -0.2865878 -0.06796847 
0.27906415 -0.048415717 0.22419932 
-0.2987004 0.10327713 -0.05341611 
0.19788878 -0.14374432 0.102633886 
0.34984022 0.18220562 0.09214231 
0.09576549 -0.50705606 0.1456328 
0.16086891 0.12466979 0.048543055 
-0.079773195 -0.33795258 0.031537432 
0.05977304 -0.57829285 0.06371948 
-0.20975073 -0.008893548 0.028748743 
0.07553485 0.08496524 0.118879855 
-0.06595673 -0.093813755 -0.0443354 
0.32673094 0.21793832 -0.16249532 
-0.20906423 0.112137675 -0.104377136 
0.15692078 -0.41708225 0.17546718 
-0.039054353 -0.25131986 0.16851074 
0.25416514 0.073151395 -0.19127302 
0.11072951 -0.17561354 0.17129736 
0.2523809 0.1219667 0.036221825 
0.4065267 0.1386973 0.03990776 
0.37880766 -0.07120334 -0.10646527 
-0.19339246 0.15172452 0.1135301 
0.1047885 -0.44298035 0.24509598 
0.1271457 0.09950781 0.0062812734 
-0.2863492 0.15801156 -0.077034734 
0.2883834 0.10617291 0.1841196 
0.11340138 -0.27247068 0.13064033 
0.1873992 0.17723668 -0.24476416 
-0.08232576 0.2574919 0.041817635 
-0.08643606 0.24407285 0.013865111 
0.43513072 0.09302715 -0.038495917 
0.2545764 0.11062563 -0.019980285 
0.23832095 0.1566697 0.18833143 
0.15282646 -0.07491006 0.27313814 
0.15120117 -0.23747386 -0.059173044 
0.32795233 -0.25022474 -0.03947036 
-0.023974074 -0.06877477 -0.07974285 
0.3459531 -0.049068216 0.17543247 
0.03717902 0.1525293 -0.12978323 
-0.059943136 0.1146538 -0.13981912 
-0.14256884 0.10873473 -0.19039235 
-0.007969969 -0.0642818 0.14558364 
-0.091701664 0.19590104 -0.13099179 
0.12700947 0.15851013 0.048205696 
0.1882683 -0.02149425 0.26112825 
0.22322077 -0.20868227 0.23650277 
-0.089480326 -0.12849231 -0.083940685 
-0.038119342 -0.4314986 0.19681813 
0.13131769 -0.21728963 -0.1529207 
-0.0113265235 -0.5499086 -0.016817104 
0.32365394 0.16908003 0.12642476 
0.065005764 0.07752408 -0.014396083 
0.1898552 0.07019016 -0.06188514 
-0.026978461 -0.03808322 0.10580028 
-0.084980555 0.3282669 -0.059207153 
0.015156028 0.26034164 0.02253792 
0.07730901 -0.37951615 0.03665337 
0.41876492 0.09578835 0.03981146 
-0.3171485 0.19982319 -0.01490871 
0.24464084 0.34746718 -0.036170408 
-0.112091474 -0.005512273 0.13076031 
0.25575477 0.13913341 0.0626486 
0.030795481 -0.44403556 -0.076386936 
-0.0034109245 -0.32216293 0.15319592 
0.12701844 0.1677832 0.065856986 
0.09673913 -0.2509873 -0.16739257 
-0.26463717 0.12953351 -0.025503086 
0.2110655 -0.032501496 -0.23802474 
0.03779183 -0.5773363 0.027302312 
0.40060374 -0.065368585 0.1197051 
0.15942392 -0.16949435 0.26625362 
0.013911122 -0.114049606 0.11838128 
0.24446933 -0.09544755 0.054137558 
0.35042268 0.2489175 0.036931105 
0.25912473 0.3124951 0.025089076 
-0.2154905 0.032791235 0.12003206 
0.023354637 -0.31005985 0.25453192 
-0.09238024 0.22867481 -0.22911702 
0.353084 -0.17294884 0.11464308 
-0.20071937 0.07984914 -0.18060431 
-0.016664581 -0.29009536 -0.027659992 
-0.036100246 0.2618635 0.045904715 
-0.19790249 0.14878413 -0.040829003 
-0.12295353 -0.49241015 0.1260421 
-0.23401009 0.078934796 0.0010319123 
-0.26967618 0.111180544 -0.0077996543 
0.32412472 -0.20848799 -0.10043865 
0.4001583 0.20381977 0.0030759731 
0.16859284 0.122909464 0.11359855 
0.25996065 0.19546856 0.15566508 
-0.2824714 0.05514374 -0.019899083 
-0.26477188 0.05664422 0.019046284 
-0.06751788 -0.47526327 0.14989111 
-0.008538537 -0.50369316 0.12554356 
-0.03377019 -0.10163624 0.022610364 
0.18354656 0.104234785 0.052284546 
-0.06474568 -0.2820378 0.15374367 
0.029162418 -0.22698614 0.041332133 
0.12643456 -0.34666914 -0.10863267 
0.2724876 0.13721634 -0.09015308 
0.1299157 -0.4468389 0.19740008 
-0.16746144 0.19824745 -0.04205178 
-0.018191237 0.24581692 0.044651356 
0.3867503 -0.16566342 -0.062072102 
-0.03867718 -0.42150736 0.23460202 
-0.14888963 0.2385484 -0.00778859 
0.11439551 -0.19287847 0.17483883 
0.286955 -0.084870696 -0.1883274 
-0.13608204 0.2592294 -0.008752414 
0.37987518 0.14283308 0.07922499 
0.00060794 -0.56960344 0.08985723 
-0.20724396 0.08259722 0.12030564 
-0.22465816 0.0578456 -0.031543747 
0.43288642 -0.063242234 -0.021916062 
-0.10639757 -0.0134894345 -0.098045446 
0.02093695 -0.5255165 0.256366 
0.31316525 -0.11156887 0.20400031 
0.36894402 0.22630078 -0.11836587 
0.3084941 -0.24608992 0.03660986 
0.34894156 0.07956493 0.1439484 
0.09359584 -0.5296169 0.017418237 
0.26439282 0.103782155 -0.12826401 
-0.123862214 -0.07488478 -0.059429716 
0.13414766 -0.14472225 0.13186665 
0.28236386 0.3159864 -0.10868201 
0.39979604 0.08363332 -0.10427648 
-0.15304515 0.20705621 -0.093174875 
-0.07513482 -0.53665894 -0.05578161 
0.38726735 -0.016132008 0.12647133 
-0.0006565532 -0.31182268 0.012758086 
0.078092806 -0.33811015 -0.019579632 
0.2153099 0.16744655 -0.23708607 
0.012581711 0.15306579 0.06900364 
0.25253692 -0.3280777 0.040247038 
0.22753581 -0.31646067 -0.079968676 
0.10125441 -0.18099587 0.11645655 
0.182279 0.025706578 0.26336002 
0.36389205 0.17669937 -0.13897559 
0.25797322 -0.092190385 -0.03650945 
0.13936812 0.024553575 -0.26682884 
-0.16255845 0.16464469 -0.18593568 
-0.07157831 -0.5030742 -0.029088737 
-0.13698304 0.18788074 0.0531762 
-0.13719733 0.1770128 0.015928274 
0.27396637 0.13678043 -0.104519255 
0.252501 0.10477121 -0.0208933 
0.011848805 -0.26173684 -0.00014924302 
0.0375715 -0.32858807 0.15556228 
0.045077242 -0.3911671 0.27390608 
-0.18962403 -0.051632103 -0.05561901 
-0.11543888 -0.11072362 -0.09190052 
0.13313586 0.023165839 -0.26406467 
0.31981072 0.15612851 0.13714147 
0.24921317 -0.05392039 0.08545199 
0.170679 -0.363137 0.23087749 
0.3861824 0.21662493 -0.10055947 
0.26719677 0.1444038 -0.020357171 
0.008124486 0.13904 -0.18267187 
-0.12504129 0.023962894 0.09051398 
0.27044147 0.09143787 0.20064303 
0.31085518 0.25693735 -0.03583546 
0.0014561015 -0.09946041 0.11886327 
0.0551379 -0.5359249 0.0030955598 
-0.18614753 0.045952793 -0.11770907 
0.30439198 0.31118056 -0.14036678 
-0.029874202 -0.44245678 0.11957247 
-0.020598646 -0.022106774 0.11316942 
0.20170963 -0.3294584 -0.08404192 
0.20938277 -0.19048724 -0.11580653 
0.14384517 0.02095068 -0.22625485 
0.2998118 0.10071219 0.17845324 
-0.11642562 0.18612297 -0.049437944 
-0.07028751 -0.07467692 -0.11422694 
-0.14696546 -0.05290297 -0.054644704 
-0.025835246 -0.15162612 0.017587444 
0.26646566 0.15311623 0.014465415 
-0.19379975 0.10352549 0.116564095 
0.26672053 0.111922406 -0.22199368 
0.34658912 0.027862335 0.16133523 
0.06524596 -0.12732953 0.12632209 
0.1340706 -0.39621094 0.24047725 
0.24233714 0.17880829 0.17459872 
0.019661035 0.207795 -0.14454797 
0.30677402 0.2950284 -0.15365842 
0.33634886 -0.2274654 0.0012531349 
0.011322508 0.156486 -0.1883623 
0.18032388 -0.40107942 -0.03674286 
0.019033756 0.16359594 -0.14695947 
-0.06898058 0.17417389 0.062347945 
-0.12060272 -0.48471165 0.17298672 
0.053226717 -0.15574732 0.16561294 
0.16102847 -0.24429339 -0.16867323 
-0.0058672004 -0.45050496 -0.039928216 
0.19774048 0.15510347 -0.25089929 
0.06732442 0.067856856 -0.044836015 
-0.2746202 0.088163786 -0.05069502 
0.19826506 -0.0033360238 -0.24613692 
-0.31356314 0.091570415 -0.07036047 
-0.12396325 -0.4573745 0.28431952 
0.3245996 0.32701802 -0.025795422 
-0.22676009 0.07090857 0.0028929901 
0.35834867 -0.16804418 0.10721193 
-0.049302846 -0.105270214 -0.039398555 
-0.034608573 0.1701973 0.103270106 
0.03944782 0.08216668 -0.12891923 
-0.059444305 -0.10807912 0.015926238 
0.08206062 -0.3533083 0.10661219 
-0.10305068 0.27661052 -0.13557768 
0.20901948 0.2371318 0.1074618 
0.082824506 0.13521896 -0.18014777 
-0.00985241 -0.44703543 0.009541736 
-0.05882139 -0.5071464 0.2691317 
-0.05120509 -0.36143124 -0.0024129595 
0.21203215 0.055029843 -0.03863102 
-0.35546345 0.10500603 -0.073131956 
0.40791228 0.06465702 0.07269729 
-0.31982228 0.2052545 -0.020382496 
-0.14318705 0.26303488 0.044660833 
0.14567105 0.074121736 0.24429737 
-0.3318856 0.15428345 -0.07047435 
0.37406212 0.16935399 0.07100522 
0.1970135 -0.16427124 0.034488555 
-0.18065421 0.0028534492 -0.006653944 
0.08148119 -0.2687308 0.2087292 
-0.10463973 0.026410105 -0.14465894 
0.13166574 0.07965249 -0.05708456 
0.08655254 -0.3372021 0.14223304 
-0.12079823 0.24065825 -0.15946732 
0.24947636 0.0692115 -0.110360794 
-0.116241306 0.093545355 0.07694615 
0.24946356 0.07537722 -0.23196085 
0.27939335 0.2744714 0.082211845 
0.2279547 -0.10851148 0.08561899 
0.29692876 0.011022552 -0.20283069 
0.31012395 -0.13328874 0.20535132 
0.15777753 -0.029565891 -0.13238364 
0.10922674 -0.19691171 -0.037483018 
-0.103270546 0.33135763 0.055028904 
0.29771274 0.19892809 -0.109849446 
-0.15292084 0.09938071 -0.13508327 
0.25369263 -0.105893716 -0.11541562 
-0.20739767 -0.0064397184 0.045783717 
-0.17591332 0.18062356 0.10829171 
-0.084992595 0.30114546 -0.15292764 
0.087977014 -0.5046685 -0.004390043 
-0.24650116 0.05525874 -0.026038704 
0.09009266 -0.53017694 0.08805521 
0.120637864 -0.26276225 -0.17359789 
-0.0024111734 -0.4349687 0.017110335 
-0.12165104 -0.054641895 -0.11970219 
0.24150373 0.27857533 0.10296522 
0.2748295 0.24127145 0.11424102 
0.1779383 -0.065746516 -0.1205038 
0.21056764 -0.3461424 0.1735249 
0.21037172 0.13995911 0.20727518 
0.23353557 -0.12126857 0.014538542 
0.05681467 -0.30759335 0.18764164 
-0.17412251 -0.02379165 -0.094878316 
-0.0733986 -0.026911903 0.13618132 
-0.11484864 0.31369033 0.05947534 
0.07202725 -0.3216513 -0.14577943 
0.06930678 -0.22983357 0.2848245 
-0.1598154 -0.074574426 -0.08238176 
-0.31635928 0.20592986 -0.07151182 
-0.0071961926 -0.50364935 -0.048543695 
0.20327573 0.2752451 0.07735638 
0.27812272 0.2985729 -0.16981532 
-0.22816785 0.047418777 0.027110904 
0.19232051 -0.0049846955 0.25760713 
0.077154905 0.020593164 -0.1381648 
-0.008320121 -0.53451127 0.21748616 
0.2652578 0.20857167 0.09815427 
0.23312348 0.08133474 0.07238986 
-0.2667939 0.14488846 -0.0008970155 
0.12979236 0.092997685 0.0655486 
-0.09032756 -0.4338962 0.3078512 
-0.034769345 -0.2745951 0.17467733 
0.090707906 -0.516878 0.13478443 
0.44210464 0.068781026 -0.001158545 
-0.22308649 -0.029743778 -0.095493264 
0.24693891 0.123370014 0.08845799 
0.3906769 -0.09233761 0.1367088 
0.07431461 -0.20172405 0.25018436 
-0.021634618 -0.23063801 0.13244343 
-0.102871045 0.21637739 -0.006527444 
-0.04130903 0.25592074 -0.0027324343 
0.19248235 -0.08520835 -0.23989062 
0.09657639 0.0049675982 -0.1286029 
-0.18198922 0.09856003 0.108004965 
0.33753756 0.27235284 0.028495079 
0.13679302 -0.35120994 0.24640837 
0.07298945 -0.28920007 -0.14414026 
0.28408158 0.35268405 -0.015168107 
0.30388513 0.2805376 0.04454066 
-0.18732555 0.15649427 -0.07402344 
0.26117775 0.30000937 -0.13299651 
0.25087422 -0.08860687 -0.049104992 
0.14704575 -0.31898108 0.2476619 
-0.0050856387 -0.40032876 0.28821886 
-0.037090495 -0.121251054 0.10510846 
0.1923695 -0.028151283 -0.24423677 
0.44449744 0.052556217 -0.006634495 
-0.060336486 -0.10544674 0.0975299 
0.07861932 0.038640413 -0.15490836 
-0.25916633 -7.08116e-05 0.0051863543 
0.14233987 -0.2224415 -0.19239293 
0.020043362 -0.45692703 0.27374005 
0.24263754 0.11737631 0.106602214 
0.25181377 -0.26616237 0.21289463 
-0.26039228 0.06258241 0.012161237 
0.23133786 0.35175374 -0.030074548 
0.045321845 -0.33511198 -0.13400088 
0.19444536 -0.37279513 0.15533584 
0.04782551 0.19057131 -0.14453766 
-0.09760043 0.16680479 0.06294227 
0.05416536 0.059075844 -0.121327214 
-0.01689823 -0.022377245 0.12736881 
0.013991869 -0.19730343 -0.04412144 
-0.06917268 0.23988959 -0.08183526 
-0.07639425 0.216198 -0.1313516 
-0.020472445 -0.29366642 0.17836057 
-0.23665969 0.13872299 -0.032368086 
-0.06322715 -0.3170855 0.16716707 
-0.10808436 0.15379165 -0.20190212 
-0.0058949944 0.17303278 0.064475834 
-0.25181013 0.028679421 -0.15100288 
0.08388867 -0.32579625 0.017828036 
-0.09315682 -0.5156646 -0.05686527 
0.19417043 -0.39390087 0.07156781 
-0.23832972 0.008243552 0.047664963 
0.027764915 -0.13515447 0.16075186 
0.22626501 -0.24073751 -0.14393705 
-0.031896725 -0.4796885 -0.001989314 
0.4270179 -0.016644347 -0.044446573 
0.1145381 0.071610205 0.009282294 
-0.09782122 -0.033536915 -0.13179901 
0.13779677 -0.19447155 0.20595251 
-0.13681766 0.08724839 0.11158317 
0.33511028 -0.059927274 -0.15744638 
0.36053845 -0.17667554 0.066559725 
0.15417597 0.14169559 0.22642441 
0.43453446 0.07070297 0.01751858 
0.010822336 -0.410682 0.28240845 
0.274676 -0.040742613 -0.20804922 
-0.079489924 -0.47347406 0.15067625 
0.065743804 -0.08226182 0.15648665 
0.22645566 -0.118008174 -0.21015985 
-0.03279301 -0.37094405 0.30180287 
0.4133183 -0.08454864 0.10619217 
0.15303685 -0.17303644 0.26772147 
0.14442296 -0.45007464 -0.017327903 
0.16497386 0.11621448 0.19259438 
0.18318637 -0.22478369 -0.11364613 
-0.20313454 0.0029571764 -0.07487771 
0.048083484 -0.14632595 -0.09452428 
-0.054099217 -0.12151014 0.06548502 
0.19311178 0.23599808 0.16303426 
0.2815203 -0.30328587 -0.008440401 
0.07210517 0.065519795 -0.036055703 
0.09081606 -0.5178309 0.0071088327 
0.4160579 -0.09993479 0.046507157 
-0.09725663 0.31462643 -0.036904562 
-0.10033873 -0.033047516 0.09455043 
0.0055765146 0.14838272 -0.15066075 
-0.11936213 -0.1019224 -0.051933683 
0.164648 -0.43080208 0.090930395 
0.13400112 -0.22987309 -0.026632939 
-0.078660555 -0.103035346 -0.034188177 
0.3432464 -0.022713868 -0.15939657 
0.09266066 -0.14986812 -0.052910965 
-0.10861267 0.078829065 -0.12823883 
0.07874841 -0.32776338 0.2712003 
0.14894155 -0.14567849 -0.18878198 
0.42338404 0.051444225 0.049632672 
-0.018438432 -0.12383227 -0.019647911 
-0.061138745 -0.50012827 0.28097627 
-0.105680384 0.101365246 0.09046796 
0.22208647 -0.0844469 -0.18523023 
-0.03705589 -0.24742125 0.14570497 
-0.11007671 0.034782726 0.08881221 
0.289344 0.3235301 -0.09825654 
0.054024745 0.17675272 -0.13584554 
0.099131726 -0.3143969 -0.09987892 
0.05425915 -0.25634623 0.004311779 
0.18554346 -0.43066156 -0.0065877545 
0.22599807 -0.105901495 0.10398344 
0.27435857 0.14717898 0.17449625 
0.13771082 -0.2289789 0.035218306 
-0.04921108 0.247741 -0.23461328 
0.1888518 0.26423457 0.14542188 
0.11401129 -0.16942641 0.27782422 
0.20068352 0.31234437 0.07943837 
-0.047313996 -0.35668808 0.055298973 
0.014724138 -0.12151476 0.15764762 
0.26113832 0.30549482 0.06426396 
0.23259658 -0.04769273 -0.12099808 
-0.057055216 0.20013697 0.057541583 
0.05719479 -0.36492875 0.02763026 
0.14334658 -0.028838346 -0.093794495 
-0.041604087 0.28510228 -0.155805 
0.16418815 0.015224904 -0.14175504 
-0.0503694 -0.13795274 -0.0024656837 
0.029309032 -0.45213935 0.27122056 
-0.03170764 0.27056035 0.07830981 
0.23156135 -0.31636715 -0.0776417 
0.13101585 0.1332575 -0.057950515 
0.313328 -0.03372411 0.20012775 
0.2704406 0.15909153 -0.000859008 
-0.107051566 0.17214902 -0.14259385 
