-0.03174904 -0.012256012 -0.3908253 
0.07880595 -0.027530827 -0.41696355 
-0.021930585 0.0056522475 -0.13039377 
0.056434676 0.03508788 -0.43335778 
0.021929268 0.01970223 -0.09901262 
-0.011751555 -0.021929925 -0.32890797 
-0.008792347 -0.021929925 0.40082762 
0.021929268 -0.004914376 0.11413304 
0.047806725 0.03508788 -0.4546827 
-0.021930585 -0.0034537055 0.38613963 
-0.031409267 0.0121537065 -0.39056292 
0.06775555 0.03508788 -0.40407798 
-0.042593364 -0.03508788 -0.3565922 
0.033760596 -0.03508788 -0.36636358 
-0.021930585 0.012477155 0.010689218 
0.043968674 -0.03508788 -0.37329367 
-0.021930585 -0.00806798 0.132753 
0.021929268 0.018110758 0.17586668 
0.021929268 0.019247662 -0.11584311 
0.012148371 -0.021929925 -0.17144707 
0.021929268 -0.014070714 0.0035770878 
-0.003918501 0.021929925 -0.09890085 
0.037388403 0.03508788 -0.44807518 
0.021929268 0.01792868 -0.20052972 
-0.01941586 0.0877197 0.42967972 
0.021929268 -0.0038337244 0.09017394 
0.021929268 -0.0072364607 -0.13415603 
0.0045960806 -0.011351436 0.49958894 
0.021929268 0.0014345975 0.09180412 
0.06333961 -0.03508788 -0.44358513 
-0.032033775 0.028618842 0.48589894 
-0.03548207 -0.007455241 -0.39536515 
-0.021930585 0.0027997466 0.32499403 
0.021929268 0.014463966 -0.051969722 
-0.0075663365 0.021929925 -0.31154126 
-0.06584722 0.013337854 -0.37763244 
-0.021930585 0.0015254011 0.40631312 
0.033412054 0.066196606 0.4843832 
0.021929268 -0.014693636 -0.0031896846 
0.021929268 0.00016313574 0.062256217 
0.0014746618 0.021929925 0.1949458 
0.038775712 -0.0063753496 0.47653458 
0.021929268 0.0152523145 0.26963446 
0.022850908 -0.006356807 -0.49649626 
-0.021930585 0.009259101 0.21748568 
0.021929268 0.00063723867 -0.22608611 
0.055601344 -0.03508788 -0.47473785 
-0.012635982 0.021929925 0.19935268 
-0.062059276 -0.024116093 -0.46967748 
0.026930152 0.03508788 -0.38015968 
0.021929268 -0.007815577 0.09775536 
-0.021930585 -0.004245078 0.015225923 
-0.033991583 -0.031012204 -0.3934742 
0.01386336 -0.021929925 0.18323867 
-0.0017690704 0.021929925 -0.28868914 
-0.021930585 0.019378407 0.10732755 
0.011329129 0.0877197 0.45992306 
0.02577323 0.020504069 -0.45629904 
0.021929268 -0.004547572 -0.23806764 
-0.056797482 -0.03508788 -0.38861862 
-0.017125223 0.021929925 -0.10180445 
-0.021930585 0.0029311515 0.30216494 
0.0025740776 0.021929925 -0.17646375 
-0.014703955 0.021929925 0.3191463 
0.030065352 0.004869322 -0.3892289 
-0.040170107 -0.02044202 -0.48900646 
-0.028245425 -0.025892442 0.48960012 
0.07893716 -0.0040462622 -0.4212825 
0.038724616 0.0877197 0.44761443 
0.021929268 -0.013893781 -0.030310258 
0.042059872 0.041546814 0.4439007 
0.021929268 -0.003992054 -0.055415146 
0.01611615 0.021929925 -0.2961758 
-0.021930585 -0.0020192626 0.11640974 
-0.044335105 0.026436778 -0.35585403 
0.038421556 0.038950387 0.47716564 
-0.06298693 0.0060796337 -0.4685094 
-0.021930585 0.006820953 -0.04569677 
-0.024186373 0.0877197 0.48066905 
0.021929268 0.00012258318 0.08309307 
0.042385966 -0.021912193 -0.41054216 
-0.0135491155 -0.021929925 -0.044441268 
-0.0022239161 -0.021929925 -0.25029218 
-0.021930585 0.019191723 -0.09328911 
0.008006007 -0.021929925 -0.043155797 
-0.024395505 -0.022040857 -0.38486856 
0.035186436 0.035354406 0.4822491 
-0.021930585 0.020524567 0.1959963 
-0.021930585 -0.0026297003 -0.068084896 
-0.015986534 0.021929925 -0.036024414 
0.02162323 0.021929925 -0.22985774 
0.004133055 -0.050348602 0.41255957 
-0.0301179 -0.007701837 0.42443886 
-0.021930585 -0.00572929 0.39333978 
-0.063635536 0.0024630106 -0.3745021 
-0.025498962 0.08662517 0.4207469 
0.04183858 0.03508788 -0.3764133 
0.0015040534 0.021929925 -0.29313964 
-0.021930585 0.020520752 0.3503554 
0.012136895 -0.021929925 0.23097327 
-0.03676212 -0.074621506 0.43255293 
-0.021930585 -0.0037420907 -0.16631487 
0.017777195 -0.0016104874 -0.46113944 
-0.019963274 -0.026325384 0.4172075 
0.0067177424 -0.021929925 -0.16419178 
0.0517755 0.0051177996 -0.3615557 
0.021929268 -0.013695307 -0.16917512 
0.0070182025 -0.021929925 -0.18178901 
0.014575422 0.021929925 -0.17357066 
-0.0064991103 0.021929925 0.29861686 
0.02937316 -0.03824966 0.488564 
0.019961527 -0.021929925 -0.09392312 
-0.021930585 -0.01650114 0.32615837 
-0.0122943465 -0.021929925 0.40118653 
-0.043589894 0.010390032 0.45351472 
-0.02522662 -0.033924576 -0.3463418 
0.012194621 -0.03508788 -0.3562497 
-0.021930585 0.012179569 0.07702195 
-0.0032160585 0.0220378 -0.46450752 
-0.021930585 0.017567005 0.20541334 
0.013146314 -0.021929925 0.22473173 
0.020881966 -0.021929925 0.415515 
0.01960241 -0.06733632 0.49518403 
-0.021930585 0.015113898 0.20192836 
0.021929268 -0.0005464849 -0.27993256 
0.021929268 -0.01482945 -0.020211853 
-0.010842496 -0.021929925 0.20944902 
-0.005452078 -0.021929925 0.22216167 
-0.052625604 -0.03508788 -0.38129002 
0.0028378342 0.021929925 -0.1768358 
-0.021930585 0.019579636 -0.10658197 
0.021929268 0.019373026 -0.28347546 
-0.016356234 0.035440367 0.41551316 
-0.021930585 0.013095894 -0.066665486 
-0.010484065 0.021929925 -0.1244316 
0.021929268 -0.020407537 -0.29826593 
0.016455729 0.021929925 -0.17161229 
0.021929268 -0.0045015216 0.2267095 
0.05992581 -0.03508788 -0.4128367 
0.021929268 -0.0034047512 0.03301411 
0.019335242 0.021929925 0.24109633 
-0.021930585 0.019934785 0.08232031 
0.019534737 0.0142972395 -0.3818198 
0.028316366 0.082810774 0.4895132 
0.07817796 -0.033710554 -0.43187246 
-0.0026308284 0.031227564 -0.46472317 
0.03910605 0.009406216 -0.44049758 
0.021929268 -0.00080160925 0.28518185 
0.04727461 0.009863496 -0.3578594 
-0.013309391 -0.0877197 0.4755655 
-0.021930585 0.017806763 0.24411598 
0.060311444 0.023794068 -0.37016952 
-0.021930585 -0.0030797026 0.17813927 
0.016985804 0.021929925 -0.3123048 
0.023692645 0.0877197 0.4860539 
0.04258946 0.047142476 0.4659734 
0.021929268 -0.010564954 -0.3340458 
-0.021930585 0.015327519 0.2732941 
-0.021930585 -0.009228874 0.0052364897 
0.021929268 0.015363708 0.28937125 
-0.039534707 -0.011307363 0.47483528 
-0.012402 -0.021929925 0.36988577 
-0.041621942 0.03508788 -0.39914742 
-0.021930585 0.0070462846 0.083102755 
0.021929268 -0.021162855 -0.24810727 
0.005856678 0.021929925 -0.19626029 
-0.019719163 -0.021929925 0.049351227 
-0.0011464386 0.086543515 0.4998829 
0.031273287 0.03508788 -0.36396343 
0.021929268 0.011655726 0.2280962 
0.06690525 0.03508788 -0.4410529 
0.010285123 -0.03508788 -0.47641852 
0.038184784 -0.03508788 -0.38383678 
0.021929268 -0.015109567 -0.015540153 
0.019714544 -0.021929925 -0.07749235 
0.07364981 0.034142826 -0.44930017 
0.015521199 0.021136453 -0.46180317 
0.017916184 0.021929925 -0.3333453 
-0.002972013 0.021929925 0.26806688 
0.016371846 0.021929925 0.120584734 
-0.07094143 -0.0017406394 -0.45562327 
0.021929268 -0.0024240345 -0.187426 
0.026935568 0.04525778 0.49069494 
-0.006054791 0.021929925 -0.22508411 
-0.07394174 -0.008721924 -0.44857916 
0.021572797 0.021929925 0.027698174 
-0.007505077 0.021929925 0.21105988 
-0.028406583 -0.0011046334 -0.4542642 
-0.021930585 -0.0049141617 0.35648125 
0.021929268 0.0011672501 0.36413315 
0.053764623 -0.011146784 -0.36328647 
-0.021930585 -0.016123608 0.09068925 
0.03354063 -0.0038393592 -0.3929697 
0.00628239 -0.06571364 0.49948984 
0.031477183 -0.007238953 -0.45148048 
-0.019680034 -0.021929925 -0.11416518 
-0.015880004 -0.021929925 -0.09997497 
-0.023859924 0.04965986 0.4194186 
-0.043643925 0.051378038 0.4584426 
0.021929268 0.01674769 0.01010627 
0.00906753 -0.021929925 -0.05088989 
-0.07512314 -0.030827835 -0.39699417 
-0.015454079 0.031199701 -0.46200448 
-0.020588767 0.060594883 0.4174672 
0.06981891 0.013082507 -0.38434365 
0.025784489 -0.0877197 0.46778378 
0.007853028 -0.021929925 0.3603519 
0.026972497 -0.0071721543 -0.38648358 
0.012001354 0.021929925 -0.20362695 
0.021929268 0.0010508724 0.0932407 
0.07841704 -0.0032194692 -0.42963308 
0.021929268 0.016863575 -0.23785707 
0.051509824 0.03508788 -0.45018473 
0.021929268 -0.019688783 -0.19876546 
0.021929268 -0.011685582 -0.17408106 
-0.040997516 -0.05675577 0.47110933 
-0.021930585 0.0011521052 0.042264853 
-0.006370347 -0.021929925 0.08186939 
0.0007601807 -0.021929925 0.31429136 
-0.016204363 -0.021929925 -0.095494755 
-0.06514177 0.03508788 -0.4086512 
0.06590193 -0.029794788 -0.46438935 
-0.021930585 -0.006256633 0.24795015 
-0.021930585 -0.004613746 0.07098888 
-0.021930585 0.0077023706 -0.06763084 
0.013106806 -0.021929925 0.17920549 
-0.025792671 -0.0076776687 0.4208362 
-0.021930585 0.01323069 0.41789648 
-0.012496784 -0.021929925 -0.13170364 
-0.01073946 0.021929925 0.1328522 
-0.044550005 0.016268775 -0.35600224 
0.021845926 0.031251248 -0.45885956 
-0.021930585 -0.0012877468 -0.23160003 
0.021929268 -0.00010916822 -0.02939393 
-0.0761237 0.008038036 -0.44134173 
0.060346566 -0.007310496 -0.37019 
0.0066650272 -0.0877197 0.4132472 
0.02939613 0.0032929215 -0.45342135 
-0.01607968 0.021929925 0.09513882 
0.06865227 0.026268931 -0.3823655 
0.021929268 -0.01605229 0.28136384 
0.02366039 0.0877197 0.44809693 
0.0013165553 0.021929925 -0.009099996 
0.020936383 0.021929925 -0.20364855 
0.021929268 -0.0045979414 0.1596344 
0.011887016 -0.021929925 -0.0086571835 
-0.049165208 0.03508788 -0.4774766 
-0.003822839 -0.021929925 -0.07356208 
0.044040635 -0.03508788 -0.36511835 
0.03935392 0.0877197 0.4610308 
-0.040570904 -0.074525915 0.47239628 
-0.043310285 -0.024853228 -0.42751503 
-0.05653537 -0.03508788 -0.4103379 
-0.0014035169 0.026184408 0.4124154 
0.021929268 0.020861128 -0.24721786 
-0.014513011 0.0877197 0.44977003 
0.07534886 0.024990182 -0.44451112 
0.039758895 0.019348685 -0.48923597 
0.040311586 0.03508788 -0.4449464 
-0.063129 0.03508788 -0.434003 
0.016870597 0.021929925 0.059732463 
-0.042548995 -0.07009147 0.46578917 
0.019426454 0.021929925 0.21899793 
0.01654234 0.021929925 0.2736874 
-0.0137679195 -0.0067871762 -0.498746 
0.030374939 0.017873585 0.42465267 
-0.021930585 -0.012378435 -0.3356958 
-0.027476424 0.035118476 0.49009284 
0.019468538 -0.021929925 0.21295711 
0.026938096 0.04504452 0.42163306 
0.017746905 0.021929925 0.17431244 
0.021929268 -0.0031123194 -0.09603971 
-0.004700965 0.0877197 0.46213654 
0.040834416 0.018363161 -0.35358003 
-0.010683268 0.07804972 0.49842128 
0.04791805 -0.014574057 -0.3583869 
-0.021930585 0.0146448575 0.24185862 
0.038156 0.048168026 0.4346879 
0.006492947 -0.021929925 0.040619377 
-0.021930585 -0.0014832852 0.32796457 
0.05696019 -0.03508788 -0.3706944 
-0.058146946 0.03508788 -0.41489667 
0.021929268 -0.0016771492 0.3761447 
0.021929268 0.015578488 -0.2509046 
0.0162634 -0.021929925 0.24066015 
0.02074622 0.021929925 0.09925041 
-0.021930585 0.0035576667 -0.33622837 
-0.03598377 -0.03508788 -0.38541454 
-0.058174264 -0.03508788 -0.40723118 
0.021929268 0.014428764 0.2812297 
-0.010041278 -0.021929925 0.0018054819 
0.0072228117 -0.027634233 -0.499648 
-0.023380587 0.0877197 0.46411446 
0.021929268 -0.017434368 0.3462887 
0.017235678 -0.072592705 0.49637088 
0.021929268 0.020751135 0.39607847 
0.0012032638 0.021929925 -0.29078096 
-0.07203952 0.025944503 -0.45311746 
0.021929268 -0.0016623127 -0.25697276 
-0.03650299 -0.008333129 -0.39675072 
-0.06383701 0.03508788 -0.40959647 
0.005435562 -0.021929925 -0.06489408 
0.004463835 -0.021929925 -0.27456078 
0.051387146 -0.03508788 -0.458809 
-0.021930585 -0.021450795 0.31468484 
0.012445061 -0.021929925 -0.23044673 
0.033114847 -0.034393344 0.48475376 
0.0033285352 0.0877197 0.4715119 
-0.036125936 -0.0877197 0.45361218 
-0.021930585 0.002697779 0.39047357 
-0.021930585 0.007034709 0.004963814 
0.0425378 0.083159246 0.46638745 
0.07848076 -0.011830116 -0.42927596 
-0.00055879686 0.001823312 -0.37730378 
-0.021930585 0.0033217971 0.007377141 
0.021929268 -0.019069681 -0.19203725 
0.07679318 0.006214288 -0.43903974 
0.026493464 0.03167223 0.49105754 
-0.015465307 -0.021929925 -0.34121668 
-0.007905514 -0.068774365 0.41312265 
0.00723372 -0.021929925 -0.24548706 
-0.015899705 -0.04822318 0.49672458 
-0.021930585 0.01180064 0.06878618 
-0.021930585 0.018122207 -0.123855546 
0.04318755 0.031649232 0.44892663 
-0.00089939573 -0.021929925 0.20032589 
-0.07886546 0.0040740166 -0.41785792 
0.036183804 0.008796356 0.48081377 
-0.041493364 -0.026881887 -0.43515417 
-0.021930585 0.015713342 0.3701495 
0.04345499 0.07672167 0.46117434 
0.029745702 0.008341565 0.48823664 
-0.01206957 0.021929925 -0.17368339 
0.021929268 0.0022676368 -0.10347838 
0.021929268 0.005785608 -0.32825944 
-0.0037683821 0.015477074 -0.37752017 
0.021929268 -0.01563821 -0.30602723 
-0.021930585 -0.016814768 0.29622775 
-0.016841998 -0.021929925 -0.30474284 
-0.038400322 0.0051532467 0.43507725 
-0.010960016 -0.021929925 -0.24154347 
0.035835963 0.055302978 0.4310769 
0.013387844 -0.021929925 0.3835607 
0.048820116 -0.03508788 -0.4715965 
-0.006878516 0.021929925 -0.2914239 
0.016401054 0.021929925 -0.048437584 
0.0054514953 -0.021929925 -0.0797855 
0.043454308 0.051204443 0.46146378 
0.019403165 -0.021929925 -0.2825158 
0.005370382 -0.021929925 -0.28266245 
0.021929268 -0.010262734 -0.19279605 
0.049498454 0.03498492 -0.35957867 
0.053899378 -0.03508788 -0.4469172 
0.040956225 0.022636347 0.4714841 
-0.012431724 0.021929925 0.16158697 
0.043761354 0.010623314 0.45708117 
0.011431527 -0.021929925 -0.0311989 
-0.00041210713 -0.021929925 -0.20748957 
-0.07250293 -0.03508788 -0.39333844 
0.07799714 -0.015360899 -0.40907124 
0.0074667623 -0.021929925 -0.09233985 
0.0066512004 -0.021929925 0.22685035 
-0.013230569 -0.021929925 0.3030483 
0.003963366 0.008794191 0.49965462 
0.018250452 0.07623419 0.41641822 
-0.0783532 -0.03508788 -0.42559388 
0.028738076 0.03508788 -0.3664447 
-0.016321123 -0.021929925 0.34240362 
-0.020486044 0.026079454 0.4948164 
-0.061615277 0.03508788 -0.4464332 
-0.041060496 -0.006830591 0.47138456 
0.021929268 -0.021129778 0.26470387 
-0.021930585 0.019939939 -0.12666602 
0.0048379432 0.021929925 -0.30543548 
-0.037042856 -0.03508788 -0.45125386 
-0.021930585 -0.017519487 0.20333952 
-0.043043036 0.03508788 -0.41315845 
0.01953001 0.0016088564 -0.46020287 
0.020459097 0.021929925 0.115123875 
0.021929268 0.013184877 0.21338221 
0.021929268 -0.011572898 -0.1644018 
0.0413796 0.017531525 -0.48822027 
-0.007557638 0.021929925 0.019870527 
0.007893532 0.021929925 0.11208311 
0.05604676 0.03508788 -0.37871888 
-0.025290836 0.03508788 -0.37765878 
0.00021332093 -0.013370108 -0.3772597 
-0.01881867 -0.021929925 -0.020374203 
-0.021930585 0.0016994453 -0.32531226 
-0.012119433 0.018234422 -0.37914696 
-0.021930585 0.004429664 0.28101423 
0.04288438 0.0877197 0.4633869 
-0.025263956 0.056182586 0.49193227 
0.021929268 0.01628621 -0.09231925 
0.0007130717 0.03508788 -0.46508494 
0.015560211 -0.021929925 -0.29584643 
0.021929268 0.010749902 0.113785096 
0.005739016 -0.049473338 0.41276142 
0.021929268 -0.014310916 0.09615417 
0.07389203 0.03508788 -0.40021715 
-0.021930585 0.013319889 0.096825376 
-0.002270922 0.021929925 0.078957126 
0.01597575 0.034346387 -0.49823445 
-0.03880161 -0.016323213 0.47641787 
0.022300739 -0.0877197 0.48376134 
-0.0034121652 -0.021929925 0.36255392 
0.021929268 -0.0031848517 0.15307246 
0.031261083 0.07229754 0.48676413 
-0.05863498 0.020595435 -0.36826444 
0.021929268 -0.01784701 -0.21452914 
0.016886314 -0.021929925 0.3964702 
0.016708497 -0.021929925 0.022759514 
0.043003857 -0.0075416574 -0.3549571 
0.034102924 -0.07130923 0.428833 
-0.021930585 0.018264145 -0.21211976 
0.019239597 -0.021929925 0.32228214 
0.062151704 0.005156791 -0.4696264 
-0.040906172 -0.025057172 0.47174358 
-0.0044366494 -0.021929925 0.30238175 
-0.006326629 -0.021929925 -0.06950348 
-0.014408932 0.0877197 0.46084487 
0.021929268 0.014118515 0.23785989 
-0.021930585 -0.021357339 -0.26612353 
0.019938448 -0.00661138 -0.49730635 
0.020682018 -0.021929925 0.07286302 
-0.021930585 0.0030117517 0.017630605 
0.022806596 -0.050338887 0.49346477 
-0.039381977 -0.048220072 0.43722793 
0.010564655 -0.021929925 0.09189416 
-0.021930585 -0.012973032 -0.14625594 
0.021929268 -0.0053873435 -0.27577204 
-0.00041661313 -0.021929925 0.2911775 
-0.03885327 -0.029979559 -0.4011534 
-0.0068029594 -0.021929925 0.3083054 
0.017197648 -0.021929925 -0.21974108 
0.059899762 0.034908276 -0.4722368 
-0.064108394 0.015604925 -0.3751559 
0.021929268 -0.014980907 -0.28996077 
-0.0033913148 0.027905263 -0.46456015 
-0.051272016 0.03508788 -0.39803874 
0.021929268 0.008944584 0.18763545 
0.055802427 -0.03508788 -0.38642538 
0.025205605 0.07024797 0.49199942 
0.0014070093 0.021929925 0.3423495 
0.0062525966 -0.00031703754 -0.4642177 
0.029581098 -0.034220234 -0.4530585 
0.06977621 -0.020434126 -0.38423598 
0.021596277 -0.021929925 -0.2454982 
0.07623224 0.03508788 -0.4080628 
-0.021930585 0.008305495 0.098048255 
-0.0023412746 -0.03508788 -0.49114537 
2.7386019e-05 -0.021929925 0.36037064 
0.013330572 0.013926097 0.49781546 
0.06207993 0.031812817 -0.37234724 
-0.043276682 -0.07274413 0.44961116 
-0.04657546 0.017044649 -0.35734972 
0.012546053 -0.021929925 0.18462677 
0.043477736 -0.08683751 0.4526962 
0.0050863745 -0.021929925 -0.22281109 
-0.014139542 -0.021929925 0.0024155998 
0.021929268 -0.018121576 -0.107241586 
0.03977721 -0.016545082 -0.48921537 
0.021929268 -0.010587901 -0.24928997 
0.016392589 -0.021929925 0.27122182 
-0.034708343 -0.0877197 0.44911548 
-0.011089197 0.021929925 -0.24134487 
-0.036006667 0.028732693 -0.4911969 
-0.003448907 -0.021929925 -0.31029928 
0.022941468 0.03508788 -0.38117912 
0.021929268 0.008873788 0.04245146 
0.013315981 -0.021929925 -0.22709751 
-0.021930585 -0.020350477 0.15501168 
-0.012354802 -0.021929925 0.18667129 
-0.06416907 0.010476009 -0.46685895 
-0.0007830046 -0.021929925 0.1332987 
-0.012334397 0.0877197 0.48186722 
0.00040069534 0.021929925 0.05696501 
0.009274179 0.021929925 0.03491946 
-0.0027038115 -0.021929925 -0.21423538 
0.018090794 0.021929925 0.18527758 
-0.021930585 -0.014437093 -0.2697084 
0.021929268 0.0147068305 0.33325475 
-0.018252777 -0.0877197 0.47396916 
0.021929268 -0.0107355425 0.14607951 
0.050062273 0.03508788 -0.37154493 
0.021929268 -0.017097056 0.2766862 
0.017739901 0.069725424 0.4961595 
-0.021930585 -0.009059017 -0.14928713 
0.0024459886 -0.0877197 0.4242204 
-0.043677095 -0.033434913 0.4593258 
-0.021930585 -0.011039656 0.10009958 
0.021929268 -0.019539822 0.16700579 
0.01775374 0.0023020196 0.49600095 
0.041061085 -0.03508788 -0.3779155 
-0.011679999 -0.021929925 -0.33160365 
0.010035952 -0.021929925 0.16465403 
0.016712436 0.021929925 -0.18217234 
0.036807653 -0.08360118 0.4326397 
0.0045781014 0.021929925 0.2687779 
0.019495735 -0.021929925 0.2833045 
-0.0033242274 -0.021929925 -0.26086324 
0.021929268 0.021325242 0.15393569 
-0.021930585 0.0004930201 -0.042621512 
-0.03644071 0.029408995 0.4317721 
-0.021930585 0.0030830891 -0.18431748 
-0.041666877 0.03508788 -0.44832698 
-0.03586594 0.025117517 0.48120385 
0.038656943 -0.013988351 -0.4415949 
0.043093543 0.039653204 0.44836113 
-0.021930585 0.0146304555 -0.07566737 
0.021929268 -0.012537878 -0.2621512 
-0.021930585 0.005809517 0.16121875 
0.022051582 0.01020617 0.49386272 
0.021929268 -0.0029681574 0.019977821 
-0.0058197877 0.021929925 -0.18046923 
0.021929268 0.016437678 -0.09823257 
0.012195008 -0.021929925 -0.28762552 
-0.021930585 -0.012440742 0.16551256 
-0.021930585 -0.013735791 0.30395073 
0.009229594 -0.021929925 0.2636904 
0.021643931 0.014342393 -0.49689314 
-0.030979458 -0.081625566 0.42522478 
0.037650805 0.03508788 -0.47164303 
-0.03896231 -0.000436726 0.47578585 
0.033564854 -0.03508788 -0.36779875 
-0.04281472 0.0145612005 -0.4297116 
0.078643724 0.02471893 -0.41441983 
0.05861332 0.0067221066 -0.36831403 
0.010916031 -0.021929925 0.2759659 
-0.021930585 -0.019182356 0.11042079 
0.017286368 0.021929925 -0.08475545 
0.021929268 -0.0044874134 -0.16889301 
-0.037435804 0.0877197 0.45689046 
0.05358208 -0.023137072 -0.36313024 
-0.021658357 -0.021929925 0.25090033 
0.014915529 0.021929925 0.39812982 
0.010500292 0.027275272 -0.37854326 
0.021929268 0.0040988093 -0.18850185 
0.031057421 0.0877197 0.47740856 
0.011752525 -0.021929925 0.11877459 
-0.018802876 0.021929925 -0.106751114 
-0.022588346 -0.03508788 -0.49356395 
0.0075314576 0.024137856 -0.49960062 
-0.015550461 0.021929925 0.40349796 
0.02009618 -0.021929925 -0.28112254 
0.0055340957 -0.021929925 0.19765887 
-0.043540604 0.029425776 -0.4246646 
-0.00035266654 0.021929925 -0.3156561 
0.03831478 0.03508788 -0.36276627 
-0.016189352 -0.07624723 0.49679017 
0.04340468 -0.04121678 0.4608 
-0.039890077 0.03508788 -0.47393757 
0.021929268 0.0074643297 -0.23709106 
0.015844211 0.014423386 -0.49832174 
0.021929268 0.015524487 -0.20801437 
0.03902717 0.020689087 0.43648762 
0.04039613 0.03447036 -0.43748012 
-0.018667238 -0.079411924 0.4166271 
0.0055901273 -0.021929925 -0.08377207 
-0.042928793 0.06767133 0.46420673 
0.021929268 -0.010400239 -0.17629343 
-0.07115899 0.03508788 -0.41565284 
-0.040773425 -0.019516379 -0.40508908 
-0.021930585 -0.0038571649 0.07457735 
-0.0077479016 0.03508788 -0.48602414 
-0.06555316 0.010332736 -0.46502906 
-0.021930585 0.00186493 -0.15082002 
0.027111508 0.056915153 0.42169452 
-0.021930585 -0.011488192 0.043828357 
-0.030471452 0.04423652 0.48759294 
-0.021930585 0.017727591 0.4111042 
0.0058102477 0.021929925 0.10287636 
-0.0630597 -0.023839738 -0.37362832 
0.036310166 -0.02877071 -0.44544202 
-0.011217049 0.021929925 -0.045186877 
-0.039124265 -0.01399366 -0.35256356 
0.021929268 0.0015876957 0.304967 
-0.020891905 -0.021929925 0.20966536 
-0.00016313246 -0.03516867 0.4999102 
0.029500036 0.0877197 0.4580815 
-0.039389197 -0.03508788 -0.3602194 
-0.020079488 0.042304944 0.4949631 
-0.011371221 -0.021929925 0.07950163 
0.035419114 0.014436274 -0.3505028 
0.01733732 0.005164317 -0.38089305 
0.021929268 0.010177253 -0.30960557 
-0.04185866 0.07300298 0.46891412 
-0.021930585 -0.0205399 -0.01717748 
0.017060429 0.021929925 -0.22381833 
-0.042874373 -0.066011086 0.44739756 
-0.027111128 -0.022402098 -0.45520568 
-0.0435573 0.027578603 0.45151743 
0.021929268 -0.013201849 -0.16076598 
0.01013973 -0.049422555 0.49853715 
-0.0038683054 -0.021929925 -0.0010142092 
0.01770607 -0.021929925 -0.28755686 
-0.0067303763 -0.021929925 0.317478 
-0.07554641 -0.01163288 -0.44374728 
-0.03151528 0.061705403 0.42569146 
0.069975816 0.0016647357 -0.45747146 
0.018265083 -0.021929925 -0.22718653 
0.018795788 0.021929925 -0.12913412 
-0.021930585 -0.020373099 -0.16963664 
0.022060461 -0.04258836 0.41836068 
0.011481066 -0.025147822 -0.46316007 
0.021571966 0.021929925 0.1673218 
-0.021930585 -0.009268094 0.14074396 
-0.009610575 0.028480772 -0.34274772 
-0.014692087 0.021929925 -0.09710399 
-0.07423355 0.0049734176 -0.39441893 
0.021929268 -0.001295296 0.24385168 
0.028832028 0.025761861 -0.45404997 
-0.017109262 -0.021929925 0.030345557 
0.04339885 0.059564136 0.46240133 
-0.021930585 -0.016165245 -0.25085545 
0.008174226 0.021929925 0.27172714 
0.021929268 0.0004589111 0.35119584 
0.021929268 0.019191733 0.13233183 
0.021929268 0.002728142 0.32465985 
0.021929268 -0.017816225 -0.015592818 
0.021064503 0.021929925 0.012645464 
0.05583505 -0.016476857 -0.47684816 
-0.0063278237 0.021929925 -0.14448793 
0.004517199 0.021929925 -0.1808669 
-0.021930585 -0.0113573205 0.33473736 
0.043798633 -0.023695275 -0.4204039 
-0.008917644 -0.021929925 -0.21339364 
0.0531404 -0.015263247 -0.36278132 
0.0016473056 -0.0877197 0.49342874 
-0.021930585 0.0017853348 0.012116804 
-0.078231186 0.02095294 -0.4314097 
0.021645145 0.021929925 0.37521684 
0.021929268 -0.006193107 -0.09362459 
-0.0013186582 0.021929925 0.307453 
0.016963672 -0.021929925 0.149928 
-0.021930585 0.0072815423 0.29448625 
-0.0030667654 0.082734086 0.41251633 
0.0005321105 -0.021929925 -0.19002827 
0.0070214663 -0.0877197 0.44928515 
0.020132624 -0.023946304 0.49501953 
0.04259592 -0.008119748 -0.48739803 
-0.020569442 0.00920384 0.49464086 
0.07709442 0.014569931 -0.43768805 
-0.03643337 0.0065756966 0.4319326 
0.021929268 -0.01130782 -0.0683784 
0.021929268 0.017097102 0.065513834 
0.018698627 0.018663729 -0.38154668 
-0.016292347 -0.021929925 0.2611392 
-0.014177144 0.03508788 -0.49188974 
-0.071482286 0.03508788 -0.43176955 
0.007557717 -0.08111364 0.49914536 
-0.0397696 -0.020026658 0.43810275 
-0.021930585 -0.020732217 -0.28343844 
-0.010212565 -0.021929925 0.32539436 
0.021929268 0.0026679775 0.023824155 
-0.00820319 -0.021929925 0.13812116 
0.031566724 -0.033128522 0.48632696 
0.008729026 -0.021929925 0.18483555 
0.022515455 0.07566149 0.4937215 
-0.0008865266 -0.0075920154 -0.37728733 
0.021929268 -0.01726129 -0.02413923 
-0.046790827 0.03508788 -0.4719249 
-0.01401519 0.021929925 0.34972173 
-0.012732379 0.054761134 0.49792957 
-0.031296283 -0.07030635 0.42559052 
0.021929268 -0.0054349136 0.01199197 
0.024189597 0.013411579 -0.49615827 
-0.016774936 -0.021929925 -0.035890706 
-0.0048190732 0.021929925 0.043476176 
0.007505321 0.021929925 -0.18071526 
-0.075881995 0.03508788 -0.44008163 
0.034463257 -0.06900852 0.42922738 
0.021929268 -0.01692691 0.3724544 
-0.021930585 0.00063761923 0.036622718 
0.060110897 0.03508788 -0.38088652 
-0.06524175 0.010047633 -0.37681767 
-0.0042471383 0.021929925 -0.1118868 
0.004475524 0.021881992 0.49956897 
0.021929268 -0.0118826935 -0.15995593 
0.029599926 -0.02130024 0.48838404 
0.015743641 -0.021929925 -0.19435735 
0.03164781 0.0877197 0.4445526 
-0.036839183 -0.03228034 0.47973347 
-0.021930585 0.017870303 -0.14380339 
-0.020035611 -0.0877197 0.4266396 
0.04021251 -0.08656781 0.47312558 
-0.021930585 0.014534308 0.0054754536 
-0.021930585 0.01596173 -0.17171226 
-0.021930585 0.008799546 -0.19877793 
-0.0017545621 0.021929925 0.1835166 
-0.01560075 -0.021929925 -0.32973537 
-0.012970741 0.021929925 0.111836486 
-0.021930585 -0.011811053 0.14539659 
-0.021930585 0.00043945125 0.41096044 
-0.011275573 -0.021929925 0.1998755 
0.0028994353 -0.021929925 0.29190198 
-0.030132625 0.013096471 0.48786974 
0.021034326 0.021929925 -0.016500957 
-0.06543653 -0.03508788 -0.41130838 
-0.02167159 -0.0009200193 -0.38295814 
-0.027871136 0.024153234 0.42242423 
-0.043691568 0.029171087 0.4548458 
0.021929268 -0.021428617 0.10393833 
0.0041183326 0.021929925 -0.15216996 
-0.031886302 -0.017464066 -0.34886804 
0.015428644 0.0877197 0.49432552 
-0.021930585 -0.0130132325 0.27772838 
-0.021930585 0.005874731 0.1762585 
-0.017968709 0.021929925 0.2443192 
0.020241177 -0.021929925 0.22633424 
0.006310061 -0.021929925 0.32269287 
0.008938759 -0.021929925 -0.19958295 
-0.021930585 0.017321896 0.24675742 
-0.006311265 0.021929925 -0.25540134 
-0.021930585 -0.008120982 0.06188524 
-0.032765694 0.018440831 -0.45004147 
-0.020186614 -0.018530928 -0.38216525 
-0.021930585 0.01892936 -0.04565312 
0.0022341197 0.021929925 0.2062627 
-0.021930585 0.0067863516 0.3379272 
0.0023938143 -0.0060873767 -0.499857 
-0.075531796 0.013090131 -0.4437373 
-0.06422778 -0.03508788 -0.42874077 
-0.07072218 -0.031208329 -0.38611853 
0.004131157 0.0877197 0.46930134 
0.0761 -0.023327405 -0.40054208 
0.04133682 0.04618278 0.4417191 
-0.017982246 -0.021929925 0.06837654 
0.03961802 -0.029878039 -0.48924056 
0.021929268 -0.0064483057 0.26285318 
0.021929268 -0.013161337 0.17278469 
0.0067677386 -0.021929925 0.38980433 
0.00015858872 0.028743342 -0.49995717 
0.005021312 0.021929925 0.2515028 
0.07588276 -0.004317935 -0.39943457 
0.021929268 -0.0008011115 0.09303998 
0.020961555 -0.021929925 -0.19034255 
-0.021930585 0.009747151 0.357599 
0.0690766 -0.03508788 -0.44544998 
0.021929268 -0.016447907 -0.06447023 
0.036587674 0.006874069 -0.39696488 
-0.013350133 -0.021929925 -0.009867513 
0.007333662 -0.021929925 0.29681298 
-0.07812997 -0.01737608 -0.4106468 
-0.012149916 -0.021929925 0.10978336 
0.016600346 -0.020817595 -0.46163628 
0.014197284 0.05016173 0.41465423 
0.04029652 0.07643148 0.43950358 
0.0062660044 0.0877197 0.42615977 
0.021743616 0.03350627 0.49412262 
0.021929268 -0.011940521 -0.23673084 
0.03174473 0.0034641244 -0.39093953 
-0.0038361377 -0.021929925 -0.16813526 
-0.021930585 0.008447963 -0.078178525 
-0.013225532 0.021929925 0.40347946 
-0.038197923 -0.03204675 -0.399928 
-0.021930585 0.014801218 -0.07837462 
0.021929268 -0.015080212 0.2063196 
-0.021930585 0.015346421 0.14559855 
0.021929268 -0.017513994 -0.31079295 
0.073791556 -0.02306529 -0.44865352 
0.021929268 -0.0059150266 -0.04330154 
-0.021930585 -0.012319046 -0.20973364 
0.021929268 -0.016401319 -0.22856456 
0.043557376 -0.027212957 0.45326367 
-0.0787316 -0.0044531114 -0.4258589 
0.0021061026 -0.021929925 0.13434573 
0.039723434 0.0079773795 0.43793768 
-0.021930585 0.013017984 0.020229932 
-0.021930585 -0.0142272925 0.1808741 
-0.04366175 -0.0748035 0.4535799 
0.0059816153 -0.021929925 0.33904696 
0.007436828 -0.021929925 -0.12402855 
-0.07226108 0.027647147 -0.45273787 
0.02200192 -0.05709377 0.4183571 
-0.004028007 0.021929925 0.26714024 
-0.009282877 -0.04570429 0.4134773 
-0.041116346 0.06799618 0.4712465 
-0.028493159 0.04549779 0.4894012 
-0.023473244 -0.041192625 0.41929367 
-0.021930585 0.021687154 -0.22055466 
0.0017653139 0.021929925 0.049878202 
-0.043120526 0.061652694 0.46309984 
0.030012604 -0.019613562 -0.38929465 
-0.012543117 0.034520686 -0.37903872 
0.0011518585 -0.03508788 -0.49135017 
-0.07079892 0.020320706 -0.45576626 
-0.04372144 -0.03866545 0.45761707 
-0.021930585 0.008007385 0.1701088 
-0.021930585 0.00040370357 0.2481248 
-0.021930585 0.00011183614 0.17799938 
-0.03949915 -0.03508788 -0.4001975 
0.037877522 -0.0877197 0.4719707 
0.011446516 -0.021929925 -0.3221052 
0.043123525 -0.00404182 -0.42858186 
0.017740136 0.021929925 0.026499167 
0.01347333 -0.021929925 -0.0013773749 
-0.021930585 0.003264529 -0.19714443 
0.021929268 0.014495442 0.2242689 
-0.008849841 0.021929925 0.22218806 
-0.042673085 0.07040787 0.4653943 
-0.06505924 -0.03508788 -0.3832004 
-0.016064977 -0.021929925 0.13698256 
0.008435393 -0.027646715 0.41319555 
0.035830323 -0.006044384 0.48131463 
-0.012110553 0.021929925 0.2053569 
-0.021930585 0.011249859 -0.30841374 
-0.021930585 -0.013480073 -0.07702317 
0.0067443084 -0.021929925 0.2213616 
-0.0152700795 0.021929925 0.32792595 
0.021572217 0.032911193 -0.45896748 
0.04085964 0.063404016 0.44065678 
0.03822925 -0.03508788 -0.3554125 
0.008603794 -0.0056408704 -0.499432 
-0.027868122 -0.08635897 0.4225022 
0.014884413 0.021929925 0.23604587 
0.0039675343 0.021929925 0.38879016 
0.0053690076 -0.021929925 -0.14667776 
-0.0070645195 0.01562796 -0.49959823 
0.021929268 -0.00843686 0.03329287 
-0.021930585 0.018530695 -0.06765109 
0.03932645 -0.033161364 0.4368382 
0.008827433 -0.021929925 -0.2992272 
-0.017610917 -0.021929925 -0.2331863 
0.015183824 -0.021929925 0.2589537 
0.017021408 -0.029532637 0.49648535 
-0.047285367 -0.015783964 -0.3578917 
0.025925389 -0.033525154 -0.38571244 
0.01213185 -0.021929925 0.08927577 
-0.021930585 0.020023469 -0.30986744 
-0.019988429 -0.03508788 -0.3551519 
0.0066922484 0.082669 0.41291034 
-0.0038957382 0.03508788 -0.4845321 
-0.010392443 0.021929925 -0.3052754 
-0.014168684 0.021929925 -0.25773722 
0.06322784 -0.03508788 -0.43873188 
-0.0687941 0.017930994 -0.38261545 
-0.069743775 -0.001767296 -0.3842215 
0.0031924322 0.03508788 -0.3514153 
0.016244803 -0.00927596 0.49686497 
0.043318156 0.035021394 -0.42571208 
-0.021930585 0.021034192 0.09895381 
0.0011920164 0.04330681 0.41242605 
-0.03630663 0.03508788 -0.47978047 
-0.0023028033 0.021929925 -0.22619075 
0.00029723332 -0.021929925 -0.08641694 
-0.021930585 0.0031663612 -0.28991118 
0.02906674 0.05268242 0.42342874 
0.021929268 -0.0022804942 0.2604967 
-0.003316955 0.0877197 0.43736076 
0.025149643 -0.0032112882 0.4204682 
0.021929268 -0.016866023 -0.2972915 
0.043304812 0.034872327 -0.42589107 
0.007549329 -0.0877197 0.4260217 
-0.009730584 -0.05705528 0.49888185 
-0.042345654 -0.031296764 -0.40996307 
0.024043141 -0.041568052 0.49265453 
-0.008711155 0.021929925 0.14995404 
-0.009616931 -0.03508788 -0.4663063 
0.021929268 -0.013271649 -0.32845804 
-0.021665534 -0.021929925 -0.17111005 
0.028063895 0.048064966 0.48967335 
0.019532342 0.021929925 0.0806352 
0.018828476 0.021929925 -0.19361325 
-0.018619617 -0.013201289 -0.3814395 
0.059380177 -0.025960883 -0.47303277 
-0.07551573 -0.024628943 -0.4435128 
0.009964647 -0.0798904 0.49869767 
0.021929268 -0.008994318 -0.22167718 
0.021929268 0.015828416 -0.18107733 
0.0007624312 -0.011103692 0.49976912 
-0.018430306 -0.021929925 -0.34040633 
0.016705433 0.021929925 0.01601406 
-0.021930585 0.01983491 -0.07975286 
0.021929268 0.011794755 0.40081346 
-0.021930585 -0.005181562 0.07255628 
-0.021930585 -0.019599155 0.28390664 
0.021929268 0.012504501 0.077264085 
0.03651409 -0.030331733 -0.35113725 
-0.034596145 0.03042941 -0.44778287 
-0.0036821952 -0.028457353 -0.46473035 
0.04108532 -0.03508788 -0.4437757 
0.0038024748 0.021929925 -0.0105009405 
-0.0691351 0.03508788 -0.44870773 
0.021929268 0.0018484499 -0.083992824 
-0.021930585 0.001646826 -0.17503236 
0.021929268 0.020749135 -0.11068147 
-0.050421778 -0.03508788 -0.4156903 
-0.005024126 -0.021929925 0.15575938 
0.039066065 0.058228113 0.4759324 
0.006432751 0.04706671 0.49943095 
-0.012718944 0.021929925 -0.07101896 
0.041200723 -0.03146938 -0.43552575 
-0.058412742 0.03508788 -0.4072556 
-0.064144365 -0.023151292 -0.3750966 
-0.052807953 -0.03508788 -0.39207715 
-0.021795373 -0.021929925 0.36722156 
0.017955737 0.021929925 0.22082092 
-0.037913986 -0.009202795 -0.39918846 
-0.043778166 0.03508788 -0.37096336 
0.0135400165 0.021929925 -0.2532532 
0.017581193 0.071037196 0.49626392 
0.013166935 0.021929925 -0.15884429 
-0.021930585 -0.009815345 0.20520297 
-0.019763699 0.020574749 -0.38229743 
-0.039407838 -0.050619323 0.47485352 
-0.021930585 -0.0016139351 0.21261884 
0.004488372 -0.021929925 0.096628144 
0.001978094 -0.028050251 -0.3421882 
-0.010770219 0.021929925 -0.28607592 
0.022676041 -0.029184025 -0.49656174 
0.021929268 0.021922348 0.0061803847 
-0.0007235467 0.07025324 0.49988967 
-0.021930585 0.020676348 0.41597515 
-0.0067701605 0.015160011 0.4994178 
0.008353577 -0.023956012 0.49898443 
-0.040266477 -0.03508788 -0.35532975 
-0.006331569 -0.021929925 0.16289182 
-0.011081061 -0.021929925 -0.22326982 
-0.0029122238 0.06910801 0.49988067 
0.021929268 0.004181374 0.36967126 
-0.043711707 0.07263304 0.45624292 
0.011982915 -0.021929925 0.14763701 
0.032514825 -0.0031204289 -0.34918192 
0.021929268 -0.013623083 0.21343547 
-0.042858537 -0.079828784 0.46511957 
0.06339243 0.027948381 -0.37420443 
0.005874572 -0.021929925 0.38058895 
-0.021930585 -0.0142812235 -0.25527728 
-0.009241652 0.021929925 -0.1708893 
0.0038366895 -0.021929925 -0.3096101 
0.016999256 0.021929925 0.029406724 
0.019048285 -0.03508788 -0.4867737 
0.021929268 0.017359227 0.30784813 
0.021929268 -0.016875347 0.20555028 
-0.01848002 -0.005371335 -0.49765638 
-0.019705234 -0.021929925 -0.28893763 
0.021285027 -0.021929925 0.2949113 
-0.015516188 -0.021929925 0.008721225 
0.017036723 0.021929925 0.057331514 
0.012878694 0.0076689115 -0.49882442 
-0.021930585 -0.002619266 0.34644586 
-0.019726029 -0.021929925 -0.3317931 
-0.014601427 0.021929925 0.035284877 
-0.021930585 -0.008457378 0.3264359 
0.021929268 0.0071368394 -0.022677273 
0.043094825 -0.033900104 -0.4139953 
0.021929268 0.018432518 0.27981415 
-0.021930585 0.0066777314 -0.18541497 
-0.009680213 0.021929925 0.10651466 
-0.025317026 0.0877197 0.42220238 
-0.03847685 0.0877197 0.46283537 
-0.03198508 0.08497785 0.48592502 
0.04160303 0.040059723 0.44243753 
0.04350451 0.013966147 -0.42493686 
0.018188372 0.071487345 0.49596828 
0.078421235 0.006698433 -0.41235432 
0.034044143 -0.057668827 0.48344237 
0.06879529 0.03508788 -0.39809793 
0.028210001 0.03774195 0.42271438 
-0.021930585 0.0048299474 0.3532604 
0.016238956 0.021929925 0.006148202 
0.053679254 0.03508788 -0.40457925 
0.021929268 -0.01431232 0.35260114 
0.021929268 -0.008180753 -0.10551669 
-0.03953671 0.072438344 0.47483248 
0.012320542 0.021929925 -0.17254907 
0.021929268 0.008734833 0.33566293 
0.0006558928 0.021929925 -0.29032025 
-0.015458681 0.021929925 -0.23145935 
-0.042050544 -0.04733218 0.46813098 
-0.021930585 0.004735253 -0.2279557 
0.021586211 0.023281867 0.49405134 
0.021929268 0.015320287 0.36521184 
-0.003247945 -0.021929925 -0.08607875 
-0.021930585 -0.017551243 0.12185158 
-0.0022939171 -0.021929925 0.2639866 
-0.01591847 -0.021929925 0.34579533 
-0.021930585 -0.017320674 0.227324 
0.021929268 -0.021503892 0.15861581 
-0.03796055 -0.07926371 0.4777598 
-0.06507632 0.03508788 -0.4531961 
-0.04225672 -0.011875794 0.4445284 
0.023437897 0.0877197 0.4482914 
0.0419648 -0.017293975 -0.4089871 
-0.021930585 -0.016529229 -0.22440502 
0.017687468 -0.021929925 0.1727547 
0.021929268 -0.0062519037 -0.26485074 
0.021929268 0.01973353 0.41002965 
0.021929268 -0.010324327 -0.08706073 
-0.026468161 -0.0877197 0.47706434 
-0.021930585 0.0062044067 0.09653632 
-0.027084777 -0.08510138 0.49038756 
0.029962381 -0.032655142 -0.38937256 
0.021929268 -0.013538406 0.24332063 
0.021929268 0.016550392 -0.18106058 
0.026104838 -0.022167813 -0.3466247 
0.036783766 0.004495328 0.47991493 
0.021929268 -0.018782133 -0.17205021 
-0.029487932 -0.038029633 0.48829877 
-0.023917945 -0.022771033 0.4194801 
0.03767177 -0.03217954 -0.44319972 
-0.00978112 -0.021929925 -0.1287385 
0.018756554 0.021929925 0.376233 
0.07724125 0.014262211 -0.4368765 
-0.021930585 -0.013182712 -0.17249621 
0.022682393 -0.07596503 0.41875926 
0.047914755 -0.03508788 -0.38832062 
-0.052997984 0.0018626342 -0.4794797 
-0.07371559 0.011163692 -0.3929838 
0.022552151 -0.03508788 -0.37068316 
-0.053847317 -0.03508788 -0.45449403 
-0.049243968 -0.008151064 -0.3593709 
-0.04327742 -0.0022942624 -0.41459656 
0.00968453 -0.021929925 0.0046434132 
-0.008536215 -0.021929925 -0.27024665 
0.021929268 0.013010691 -0.16234112 
0.035487868 0.009648714 -0.3505788 
0.068286166 0.03508788 -0.43196255 
-0.021930585 -0.02124247 -0.15204583 
-0.017146789 0.021929925 -0.2028494 
-0.053734846 -0.032589916 -0.36327192 
-0.015150049 -0.021929925 -0.28831348 
0.021929268 0.019945528 0.31558785 
0.021929268 0.019703027 0.37073824 
-0.017101543 -0.021929925 -0.15632021 
-0.012778632 0.0877197 0.43124956 
0.07864531 0.011131805 -0.42700866 
0.03491632 -0.015350922 0.42973232 
-0.021930585 -0.005085414 0.35764247 
-0.030243874 0.014529622 0.4878674 
0.021929268 -0.017079214 0.34788582 
-0.007323326 0.021929925 -0.18839572 
-0.021930585 -0.012662271 0.07404716 
-0.006280392 0.087527744 0.4130087 
0.021929268 -0.0032777507 -0.1176456 
0.021929268 0.012164508 0.17803584 
0.02613909 0.046708107 0.42094764 
-0.002967517 0.021929925 0.13258062 
-0.021930585 -0.0008619726 0.15454839 
-0.025959708 0.023195125 -0.4955252 
-0.03316767 -0.027269233 -0.34945986 
0.021929268 -0.014394952 -0.10674446 
0.015277008 -0.021929925 0.08971634 
0.021929268 -0.013566323 0.22823852 
-0.021930585 -0.00654237 -0.15969415 
0.014786402 0.030073764 0.49739075 
0.01662557 -0.04609832 0.41568512 
0.0034489085 -0.0111510735 -0.49986595 
0.07647407 0.015903248 -0.44046357 
0.008278664 -0.0877197 0.43345386 
0.024947353 -0.0877197 0.43495947 
0.019573536 0.021929925 -0.014108126 
0.021929268 0.011016248 0.23057048 
0.026756277 0.083326876 0.4214017 
-0.030794252 0.0877197 0.4475863 
-0.011455642 0.021929925 0.048423573 
-0.021930585 0.00026394427 -0.053677365 
-0.016021805 -0.021929925 0.41374183 
0.021929268 0.014986823 -0.049567107 
0.02356234 0.03508788 -0.35147235 
0.01945705 0.0877197 0.4383571 
-0.042032775 0.03508788 -0.36475512 
0.03803589 0.010644915 -0.44274545 
-0.07884934 -0.030705 -0.4202763 
0.031093745 -0.011904569 0.42548764 
-0.0031349726 0.021929925 0.19275321 
-0.021930585 -0.006291754 -0.20858006 
-0.021930585 -0.015012028 0.039378162 
0.0419536 0.033031855 -0.35422578 
-0.021407165 0.021929925 -0.27640212 
0.0579951 -0.03508788 -0.44378334 
0.013198365 0.05995859 0.49788862 
-0.011418108 -0.0877197 0.4907371 
-0.022698896 0.043117348 0.41861364 
-0.016678438 0.040491223 0.41571394 
-0.014648334 0.021929925 0.26088268 
-0.021930585 -0.0153785795 0.025665205 
-0.011273584 -0.021929925 -0.032908063 
-0.032545798 0.03508788 -0.38780743 
0.028543511 0.021266323 -0.3880414 
-0.006270074 0.021929925 -0.23741063 
0.030724999 -0.03247363 -0.34837115 
-0.021930585 -0.012987525 -0.30930433 
0.037503574 -0.010140639 -0.44375712 
0.008163148 -0.0698047 0.49917847 
0.02190423 0.021929925 -0.042669993 
0.005337482 -0.021929925 0.2156884 
-0.008182117 -0.05021774 0.49898344 
0.002136305 -0.05426893 0.49981412 
0.021929268 0.012299854 -0.21602708 
-0.0338053 0.05832264 0.48388755 
-0.0046976553 -0.021929925 -0.26815364 
0.042346608 0.028936401 -0.3545416 
0.031650763 -0.04963729 0.42607102 
0.028025245 -0.012574985 0.4896756 
0.015975414 0.049528003 0.49687278 
-0.0035743641 0.021929925 -0.29902667 
-0.039235618 -0.025622165 -0.4894848 
0.021929268 -0.014392433 0.13989827 
0.008135495 0.021929925 -0.17810798 
-0.069703616 0.010307386 -0.38417372 
-0.019927671 -0.07421135 0.4172435 
-0.010903635 -0.021929925 -0.33216077 
-0.004625095 0.021929925 0.3690469 
0.042230424 -0.00018969092 0.4676159 
-0.014269768 0.021929925 0.37256166 
0.035376497 0.0877197 0.48153248 
-0.04241246 0.0068409475 -0.35451445 
-0.07793795 -0.017212607 -0.40934816 
0.021929268 -0.016950378 0.0960594 
-0.039139662 0.035563134 0.43643442 
0.038836367 -0.00373998 0.47630882 
0.01751708 -0.03508788 -0.46560958 
0.04669244 -0.03508788 -0.3957915 
-0.021930585 0.021476459 -0.34457675 
-0.021930585 -0.010829347 -0.17687654 
0.033422254 -0.055718925 0.48413765 
-0.018596437 -0.021929925 0.35208422 
0.00151479 -0.021929925 -0.034527753 
0.021162212 0.021929925 0.3233097 
-0.006541974 -0.021929925 0.23989895 
-0.024950221 0.00032201098 -0.45677 
-0.038014166 -0.016410697 -0.39934686 
0.01678466 -0.021929925 0.28239766 
-0.03691644 0.076200135 0.43289438 
0.02476806 -0.03508788 -0.45859107 
-0.021930585 0.0069368556 0.14273912 
-0.021930585 0.01553974 0.07141326 
-0.021930585 0.01923134 0.13465711 
-0.021930585 0.007290892 -0.3237886 
0.0053814263 0.015740689 -0.37767112 
0.0044631725 0.021929925 0.4042444 
0.0016130476 -0.03508788 -0.46521303 
-0.021930585 0.010125915 0.17400049 
0.019080346 -0.016753534 -0.4975386 
0.015643718 0.021929925 0.12874496 
-0.027817592 0.03508788 -0.35129082 
-0.017742703 0.021929925 -0.057114955 
-0.021930585 0.0143814515 -0.24243902 
-0.0228912 0.009438811 0.4188204 
0.020931274 -0.021929925 0.13987681 
0.047806915 -0.03508788 -0.363939 
-0.021930585 0.019328663 0.22283763 
-0.004726563 0.019312816 0.49955747 
-0.019809509 0.021929925 0.3132539 
0.021929268 0.0022253077 0.002328513 
0.03766429 -0.025841732 -0.39902756 
0.008428529 0.021929925 0.18578395 
0.014814068 -0.060382772 0.41489428 
0.062556416 -0.03015087 -0.3730167 
0.025785742 0.017285572 0.4915546 
-0.043639325 -0.08531948 0.45618922 
0.021929268 0.0055052377 -0.19540815 
0.0033243936 0.021929925 -0.2100382 
0.010792673 0.021929925 -0.0975173 
0.011839775 0.021929925 -0.19025323 
0.025906464 -0.029821215 -0.38575178 
0.021929268 -0.015482684 -0.060132153 
0.005894916 -0.021929925 0.29810596 
0.027862167 -0.0009926993 0.42235255 
-0.021930585 0.007869378 -0.33606333 
-0.019197613 0.021929925 0.004308745 
-0.025304498 -0.073658824 0.49184716 
0.021929268 0.018438773 0.1472905 
0.021929268 -0.01651263 0.09611814 
0.043311823 -0.0024586774 -0.41539732 
0.011112506 0.021929925 0.21301304 
-0.021930585 0.017748697 0.3155344 
0.072780944 -0.03508788 -0.45009515 
0.008192053 -0.021929925 0.15450057 
-0.0359501 -0.018249743 -0.39597207 
-0.021930585 -0.017653698 -0.060861096 
0.021929268 0.0072574858 -0.086244024 
-0.014403716 0.073290065 0.41482392 
0.015166807 0.021929925 0.22118592 
-0.061734248 0.03508788 -0.41329518 
0.021929268 -0.010032417 -0.16157839 
0.021929268 0.015419157 -0.11383079 
0.01483063 0.021929925 0.3605345 
0.03992103 0.03508788 -0.38233885 
0.03334898 -0.04378466 0.42786926 
0.043537386 0.006772894 -0.42456704 
-0.021930585 0.007249893 0.13171384 
0.03113857 0.03508788 -0.45667252 
-0.020645272 0.022540094 -0.38286632 
0.043401733 0.03508788 -0.44419232 
0.047013644 0.03508788 -0.45805743 
0.060904734 -0.03508788 -0.45339704 
0.036966518 -0.0010768756 0.4796573 
0.043832224 -0.00962805 0.45582256 
0.021929268 -0.007806474 0.026975684 
0.01990378 -0.021929925 -0.3095909 
-0.068167165 -0.018667419 -0.38149115 
0.027689666 0.03508788 -0.46849737 
-0.02838153 -0.024129847 0.42278996 
0.01062785 -0.021929925 0.20129953 
0.018850872 0.010766895 0.4956707 
0.041725557 -0.019457478 -0.43415254 
-0.036114566 0.024731986 -0.49114645 
0.0134142535 -0.018616758 -0.4626396 
0.07880609 -0.024101002 -0.4239801 
-0.02201533 -0.03508788 -0.4874428 
0.043630775 0.065698825 0.45937395 
0.07183833 0.008255988 -0.3883943 
0.007477729 -0.0062159006 -0.49957734 
-0.030266091 -0.06256404 0.42458677 
-0.03888117 0.005055543 0.47622147 
0.011503477 0.021929925 0.0369047 
-0.0022790092 -0.021929925 0.32966104 
0.021929268 -0.01091487 -0.0009540652 
0.020091942 0.021929925 -0.32807255 
0.042813886 -0.016379336 0.4467753 
0.017210398 -0.012497662 -0.49802095 
-0.0055008475 0.021929925 -0.27576485 
4.9887192e-05 -0.021929925 0.35556984 
0.01639346 -0.021929925 0.3914736 
0.021929268 0.004225611 -0.3437204 
-0.021930585 0.0058752964 0.24781531 
-0.027847365 0.0877197 0.4576086 
0.01781179 -0.021929925 -0.02030508 
-0.015402655 0.028135855 0.49706426 
0.04370549 0.022572882 -0.41899186 
0.01986647 -0.021929925 -0.23360562 
-0.00462428 -0.021929925 0.14953716 
-0.027451273 -0.03508788 -0.4714923 
-0.009114988 -0.0877197 0.4869102 
0.008179323 -0.021929925 -0.22266267 
0.04112873 0.010797932 0.44101238 
-0.0573329 -0.030278688 -0.47521722 
0.021929268 0.016786175 0.20610346 
0.017165342 -0.062298283 0.4159805 
0.021929268 0.00816368 -0.08435283 
-0.0020256974 0.023704639 0.4124782 
-0.053040493 -0.03508788 -0.38068804 
0.006477438 0.021929925 -0.13917005 
0.066409476 0.029598068 -0.46363556 
0.0028189162 0.06742304 0.41260844 
0.021929268 -0.0077435165 0.41480199 
0.029346978 0.008556469 -0.34779617 
0.021929268 0.020282142 0.23373699 
0.014267429 0.03508788 -0.49709636 
0.02210536 0.03508788 -0.4769103 
-0.025404397 -0.0025783917 -0.4565028 
0.021929268 -0.0061685718 -0.042992026 
0.018267808 0.021929925 0.3995938 
0.010045833 0.021929925 0.23994403 
0.012077875 -0.021929925 -0.33673114 
-0.021925759 0.021929925 -0.31402153 
-0.002388791 0.021929925 0.39604214 
-0.007977007 0.04947089 0.49902445 
0.021929268 0.009628123 0.10165046 
0.021929268 0.0066158157 0.25883326 
-0.07434078 -0.024358094 -0.39483768 
-0.021930585 0.004560362 0.25193933 
-0.021930585 0.020290839 0.27590436 
-0.0585874 -0.008437796 -0.36830896 
0.041566387 0.022925775 0.46938962 
-0.025369808 0.02011346 -0.34631804 
-0.011871297 -0.021929925 0.3472383 
-0.021930585 -0.00777056 0.13472396 
0.006409443 -0.021929925 0.3585408 
0.021929268 -0.0063300976 0.21648295 
-0.072748326 -0.029803824 -0.39054164 
-0.021930585 0.020307401 0.13238712 
-0.03341885 -0.015520391 0.48434862 
-0.005225212 0.017301323 0.49960968 
0.01826201 -0.021929925 0.21658933 
0.019933265 0.021929925 0.15720475 
-0.021114364 -0.021929925 0.13186677 
0.07032546 -0.0067071305 -0.4568038 
0.021929268 -0.008719834 -0.064822726 
0.026047751 0.0010635692 -0.38578755 
-0.021930585 -0.011381494 -0.21982656 
0.02720928 0.07980364 0.421754 
0.009167276 -0.021929925 0.102957025 
-0.013208452 -0.021929925 -0.29292727 
-0.033088095 0.021805767 -0.4926687 
0.0033585886 0.0877197 0.4923972 
0.0018357431 0.021929925 0.40534103 
0.04952402 0.02392058 -0.48239943 
0.021929268 -0.0055514826 0.07824859 
-0.021930585 -0.00070181803 0.17578034 
-0.0074439463 -0.021929925 0.06735776 
0.008684355 0.021929925 -0.032294866 
0.021929268 0.01748386 -0.3310201 
-0.072404206 -0.030503182 -0.38972548 
0.016488941 -0.021929925 0.16652647 
-0.010561128 0.021929925 -0.13426821 
0.0050658523 0.03508788 -0.34300697 
-0.021557907 -0.021929925 0.1882187 
0.021929268 0.002246931 -0.20629863 
-0.042790845 0.08581127 0.44755405 
-0.065599605 0.033522908 -0.46493304 
0.007355131 0.0877197 0.44915485 
