-0.47350723 0.2880307 0.10278948 
-0.26961762 0.25493547 0.25605494 
-0.03041443 0.06606577 0.11496891 
0.31886092 -0.21584928 -0.013573061 
-0.058371395 0.46700546 -0.04336749 
0.0043477314 0.26352286 0.29652706 
0.29291046 0.1609657 -0.028870508 
0.43419647 0.26442403 -0.07955557 
-0.25103292 0.46013263 -0.06651583 
0.23268916 0.31606165 0.19196595 
-0.063054316 0.45750785 -0.003949829 
-0.01570559 0.35695624 -0.019683491 
-0.062271792 0.33092928 0.0080934595 
-0.2796695 -0.16128725 0.048927106 
-0.184997 -0.35316262 -0.24523655 
-0.17756255 -0.12459583 -0.092523664 
0.07820207 -0.45842263 -0.09888997 
-0.2015302 0.11018916 -0.043185882 
-0.25988597 0.41913372 0.047164824 
-0.29339334 -0.096028954 -0.30835447 
-0.2482131 0.31680465 0.33911443 
0.43781894 0.4041528 0.07582775 
-0.33716953 0.33905438 0.29057992 
-0.057150546 0.42066628 -0.11733589 
-0.014360849 0.3817242 -0.08465235 
-0.11917504 0.3907809 -0.12642862 
-0.23443179 0.29001507 0.13844544 
0.20637417 0.49586737 -0.057771567 
-0.25920302 -0.11828743 -0.32835144 
0.3057567 0.12989235 0.0746784 
0.026189063 0.21360809 -0.0415925 
-0.424116 -0.29905674 -0.18805781 
-0.33558577 0.39658058 -0.08148602 
0.31781054 0.13803367 0.075565316 
0.25230712 0.33685938 0.045913976 
-0.35354134 0.28400168 0.033386383 
-0.047931403 0.01932338 -0.051494006 
0.20833787 0.2589371 -0.11677977 
0.107243806 0.041539613 0.20587021 
0.070990466 -0.20774232 0.010554415 
-0.3979165 -0.3065412 -0.16516864 
0.37077016 0.39032152 -0.0423009 
-0.1580493 0.3572865 0.2870167 
0.3737189 0.09905776 -0.05868249 
0.03276264 0.40886968 -0.12109839 
-0.19544365 0.100396916 -0.00900876 
0.40759435 -0.04839709 -0.041910302 
-0.41356033 -0.257184 -0.09139096 
0.29700205 0.17181769 0.0136514865 
0.22002284 0.37285346 -0.030464077 
-0.18501861 0.2874198 0.117149286 
0.07248941 -0.055067718 -0.04930719 
-0.14629404 0.26239386 0.32626492 
-0.22811209 -0.3541336 -0.13020134 
0.049730264 -0.092175424 -0.0089239115 
0.16680606 -0.35769832 -0.04883746 
-0.21302788 0.44969723 -0.029475521 
-0.29007363 0.3360329 -0.054680616 
-0.22129387 -0.02694498 0.033689123 
-0.2095232 0.0112070795 -0.07368548 
-0.39271393 0.3977753 -0.041318506 
-0.39083865 0.353244 0.23161283 
-0.09375079 -0.28418708 -0.23396228 
-0.39652228 -0.25016713 -0.2804122 
-0.20260258 -0.22742602 -0.10716909 
0.061490517 -0.26965332 -0.012902557 
0.029672753 0.24926434 0.21394542 
-0.18341953 0.28860876 0.16964576 
-0.15271771 0.08817422 0.18752027 
-0.30287912 0.24083328 0.042516984 
0.04490677 0.20540449 0.23165503 
0.0832025 0.18880461 0.21576208 
0.14301987 -0.36038792 -0.108836085 
-0.16827416 0.2653663 0.09416008 
-0.22240208 0.28237447 0.3454677 
-0.26991212 -0.2748995 -0.28165027 
-0.2483755 0.19934128 0.20969576 
0.091800995 -0.15888219 0.061458103 
-0.13447496 -0.014945258 0.09905962 
-0.4198119 0.38756496 -0.004706417 
-0.10935062 -0.2200476 0.07964597 
0.10736974 0.046550423 0.15623346 
0.004931965 0.13017084 0.17971462 
0.41877374 0.38202164 0.12012157 
-0.20735289 -0.29921672 -0.29549897 
-0.23396415 0.049830243 -0.056285318 
0.118626975 -0.4146147 -0.12193265 
0.37325025 -0.07414407 -0.053228784 
0.47251266 0.14264733 -0.009859905 
0.039831568 0.3989394 -0.089428104 
-0.22635093 0.31991917 0.06965055 
-0.25439966 -0.052437272 0.16635473 
0.19165224 0.2638609 -0.10238995 
-0.04707775 -0.39222455 -0.28734842 
0.061816573 -0.29283452 -0.18443929 
0.008870821 0.3411693 0.32092628 
0.05970991 -0.2766281 -0.05343365 
0.16050792 0.40555713 0.23816022 
-0.092126876 -0.13356869 -0.08626316 
-0.27079326 -0.19238369 -0.27166566 
0.10341108 -0.30500123 0.03011001 
-0.426354 0.30233935 0.28125057 
-0.24853931 -0.09418754 0.016406503 
0.13643363 -0.3868072 -0.09633394 
0.29953396 -0.2233847 -0.02980443 
-0.32058853 -0.3196265 -0.05410995 
0.23387393 -0.3297357 -0.012248774 
-0.34109938 -0.352708 -0.08803269 
-0.11418301 0.036410525 0.116499096 
0.4721058 0.20375013 -0.03800542 
-0.08409953 0.050357908 0.114025585 
-0.42756087 0.31476268 0.025262661 
-0.24209467 -0.03448018 -0.05482061 
-0.07039877 -0.39244828 -0.14983697 
-0.30331877 -0.21582578 -0.053544365 
0.023218658 -0.45442277 -0.15687779 
0.016242301 -0.39963633 -0.09410401 
-0.07333375 -0.1754678 0.08704848 
0.105554625 -0.12488287 0.04791055 
-0.2631042 -0.10806123 -0.0014743763 
-0.3224318 -0.22961737 -0.32787582 
0.22799653 -0.00736723 0.1083726 
0.069192275 -0.2814485 -0.070252314 
-0.19116591 -0.3596321 0.055603832 
0.25391465 0.09156196 0.0004125829 
-0.18126783 -0.093127206 0.114267096 
0.2515056 0.26099056 -0.13354896 
-0.28704533 0.24058308 0.0868084 
-0.33909214 0.25243664 0.21955422 
-0.21708085 -0.07070967 -0.0817076 
-0.33578563 0.3457843 -0.077905305 
0.25974405 0.16215739 -0.07838899 
0.03536951 -0.42993388 -0.24788155 
-0.21596888 0.23945177 0.32168487 
0.0089266645 -0.28280893 -0.2039601 
-0.2354112 0.15583536 0.023805933 
-0.24291922 -0.3266561 0.058008287 
0.2278436 0.48431206 -0.07783797 
-0.31365448 -0.20229928 -0.33210972 
-0.27130675 0.3730359 0.20081563 
0.0861474 0.35757136 0.019256093 
0.2006941 0.19497791 -0.10693024 
0.24654761 0.0678832 -0.0300735 
0.2703404 0.3397533 0.006324633 
0.071683824 -0.22770402 0.017343072 
-0.20018 0.1138924 -0.002839009 
-0.05710538 -0.42054874 -0.25127262 
0.0951786 0.030196298 0.18278499 
0.26057735 0.4389723 0.16439931 
0.016492806 0.15771165 -0.04621877 
-0.0050968616 0.07568739 0.1409958 
0.1408995 0.36714727 -0.010522159 
0.4458786 0.26707333 0.07157603 
-0.19557217 0.46091574 -0.07244658 
-0.22976129 0.047292303 0.1381896 
0.2060601 -0.2514346 0.09864626 
-0.28825718 -0.14596352 -0.07417617 
0.16467552 -0.29460794 -0.0832367 
0.4116757 0.10466419 -0.06382721 
-0.26868844 -0.22274221 -0.28012562 
0.33501023 0.3164495 -0.11534925 
-0.09222507 0.25771657 -0.059205767 
-0.036413934 0.30438894 0.32558396 
0.11853503 0.35156912 -0.07280005 
0.41794863 0.46031946 0.11134832 
-0.39955 0.4251755 -0.004329132 
-0.14870395 -0.33568016 -0.062670514 
0.085943975 0.12283922 0.07171348 
-0.2669205 0.17910393 0.017491166 
-0.20490238 -0.03916353 0.1543606 
-0.1883862 -0.2930098 -0.22171593 
-0.10738556 0.2207894 0.13058878 
-0.27845562 0.28249586 0.09352102 
0.21488726 0.021301782 -0.00694546 
0.2316139 0.22552164 -0.047814827 
-0.22606729 0.23820291 0.031997222 
-0.3083489 -0.12140112 -0.32528484 
0.15475732 0.31578395 0.19548485 
0.0794479 -0.03538972 -0.053765107 
0.17967457 -0.35668245 -0.04537569 
-0.23247404 -0.37733418 0.011416718 
0.44219047 0.09598209 -0.049254782 
0.04776028 -0.43939456 -0.20104745 
-0.22932622 -0.26322612 -0.13017437 
-0.29810277 -0.1832081 0.022156712 
-0.37000728 0.33128372 0.3119933 
-0.12548855 0.347719 0.31660846 
-0.22119027 -0.11517138 0.14079328 
-0.048202325 -0.12066841 0.1143385 
-0.20224933 -0.19102977 -0.14521769 
-0.37914082 -0.3761838 -0.2280854 
0.25271812 -0.29635802 -0.054898966 
0.3572314 0.40031812 -0.047520112 
0.25670856 -0.30359414 -0.0538623 
0.06570773 -0.31960925 0.008418907 
0.44760227 0.038167406 0.026717454 
0.07474468 0.19965099 0.10863372 
0.0499073 -0.44239378 -0.18876468 
0.21047671 -0.33152205 0.046467315 
0.28163105 0.24412143 -0.03959783 
-0.041172124 -0.28503832 -0.2313054 
-0.31841567 -0.22214986 -0.3187358 
-0.33149904 -0.1794284 -0.23217355 
0.2992675 0.036349528 -0.06711399 
-0.08690931 0.15497799 0.111429155 
-0.28231582 0.32926127 0.02077866 
0.093696654 -0.23775339 0.067451835 
-0.4680474 0.3327381 0.054738294 
0.16024052 -0.243159 0.12539653 
-0.15808584 0.3869414 -0.11979955 
0.37085646 0.34562582 0.14386523 
0.24728358 -0.21077873 -0.07176766 
0.20297167 0.3390336 0.25590563 
-0.40899897 -0.26539624 -0.13723452 
-0.4100058 0.3738654 -0.02323698 
0.05102751 0.24878408 0.15082012 
0.21849959 -0.05361767 -0.048561744 
0.29159468 0.30163586 0.20114578 
-0.30491313 0.2611092 0.32588494 
-0.11336945 0.09991832 -0.0071216417 
0.18060994 -0.27906546 0.087835826 
-0.15598522 -0.16200395 -0.116341196 
-0.043577727 -0.07071698 -0.062220216 
-0.14155318 0.28616178 0.18183954 
0.06465092 0.23082492 0.114642106 
0.322869 0.13054034 -0.039989147 
0.38167858 0.134663 -0.061522357 
-0.18368968 0.15589361 -0.006970793 
0.050990593 0.36923555 -0.02226792 
-0.08204563 0.051813815 0.19390859 
0.33244842 0.45493603 0.10689126 
0.224985 0.05200676 0.011662874 
-0.10100483 0.10045386 0.21541685 
0.084411986 -0.5008544 -0.15617687 
-0.4649687 0.3204774 0.04697342 
-0.20281638 0.0601751 0.15594858 
-0.11429349 0.06202802 -0.014775622 
0.38420007 -0.031501435 0.087252475 
-0.3619412 0.2478824 0.22903368 
-0.089299224 0.1283158 0.007079137 
-0.29758748 0.27844378 0.05931687 
0.023888396 0.32337973 0.016986132 
-0.20439929 0.41528144 0.11150265 
-0.28701687 -0.39854327 -0.1350847 
0.1390968 -0.21530448 0.1416801 
0.060668588 0.3301109 0.11625229 
0.07611056 0.32304484 0.11630707 
-0.16557835 0.19269861 -0.07838604 
0.27436975 0.3212123 -0.12349489 
-0.28269958 0.2447877 0.03928616 
0.33044487 0.33350176 0.12685436 
-0.28547964 0.23622182 0.255018 
0.35429484 0.44186503 0.15928018 
0.2966902 0.10854135 0.06825748 
0.18874304 -0.12527685 0.15037878 
0.14000362 0.2566753 -0.06539677 
0.047127757 0.2435296 -0.021302069 
0.40025356 0.28180003 -0.09958189 
0.25939408 -0.079104304 0.12572765 
0.1966264 0.4834561 -0.026591726 
0.107315384 0.36153364 0.0110329 
-0.25476286 0.076930836 -0.02896024 
-0.08310358 -0.29321325 0.013409805 
-0.13642626 0.05200025 0.15374793 
0.23661503 -0.19301043 -0.065098904 
-0.4146776 0.30328608 0.07754942 
0.043685433 -0.3660841 -0.022040399 
0.24847896 0.16524397 -0.1028072 
0.08410271 0.18370631 -0.0073579 
-0.31639943 -0.10385352 -0.3128469 
-0.018747795 0.0010964733 0.13235475 
-0.19667277 -0.042370327 0.09847237 
-0.4202402 0.36471742 0.17973877 
0.27995706 0.36376595 0.22923426 
-0.2156058 -0.031817447 0.035060227 
0.12847184 0.22377132 -0.08062833 
-0.22828712 0.2998166 0.12916087 
-0.21798283 0.43204457 0.018752731 
-0.19501501 0.2490139 0.2657097 
-0.43037447 0.27509955 0.16484463 
-0.014574199 0.43583682 0.07637348 
-0.32381928 -0.29968303 -0.06837279 
0.20670238 0.038760178 0.036187693 
-0.084158465 -0.13521105 0.11054501 
-0.09143827 0.16934429 0.13060813 
0.45801708 0.1849178 0.052243974 
-0.10472789 0.110506296 0.1258139 
0.293578 0.41262108 -0.085085146 
0.08382064 0.10591656 0.066612795 
0.29595795 0.46438292 0.06751355 
-0.43413165 0.33729568 -0.0044112485 
-0.0009989183 0.39131424 -0.08078596 
-0.11773246 0.22646068 0.11488289 
0.32143214 0.37582737 0.21132438 
-0.0223668 -0.19359957 0.029966231 
-0.014006298 0.38146758 -0.072435476 
-0.2306933 0.16416465 0.0026389929 
0.3951267 0.42285538 -0.02473241 
-0.002440555 0.37975496 0.25262937 
0.093542054 -0.38175926 -0.19468676 
-0.060681112 0.11022702 0.11267907 
0.46389115 0.07773675 -0.005653359 
-0.26816237 -0.13982558 0.1048537 
0.43112162 0.32635504 0.059963655 
0.31526828 -0.192945 -0.027383674 
-0.050331205 0.07409491 -0.040490616 
0.0644081 0.071230516 0.09356238 
-0.16972356 0.28695136 -0.009145341 
-0.1496471 -0.25653645 -0.08686128 
-0.29834944 -0.18654963 -0.06900394 
-0.42470756 0.33765817 0.27065563 
0.015059097 0.38638037 0.24274316 
-0.35624462 0.2712606 0.08315398 
-0.3007551 -0.39045143 -0.19467121 
-0.21667752 0.46398953 -0.047021862 
-0.043708388 -0.122584365 -0.08901279 
-0.27182657 0.26644358 0.103665695 
-0.4096187 0.30689833 0.31948522 
0.048456553 0.19290885 0.14837283 
0.07226635 -0.13530922 -0.06564917 
-0.29287452 0.26700297 0.3346046 
0.10744792 0.43168074 0.12489628 
-0.19080698 0.39659384 -0.120379314 
-0.07967932 0.24971351 0.30530444 
0.028979545 -0.10563931 -0.018942542 
-0.104499616 0.17062913 0.054221846 
-0.16882224 -0.16584757 -0.103404455 
-0.2637934 -0.056909204 0.10276548 
-0.20373234 0.038665302 -0.058386903 
0.04974693 -0.08909873 -0.00540608 
0.051433444 -0.17539155 -0.049458623 
0.1631117 -0.36292326 -0.05612527 
0.017624551 0.35451254 0.29565114 
-0.19458318 -0.31909385 -0.101478 
-0.33261472 -0.18354979 -0.30350327 
-0.30593994 0.2609973 0.11583321 
-0.112723075 -0.14088419 0.11778378 
0.2108456 0.36662623 -0.009152176 
-0.030868731 0.41671097 0.19025569 
-0.20324232 -0.36942527 -0.08064015 
0.07962209 0.45965564 0.041391656 
-0.12417008 -0.066921204 0.13492584 
0.40858814 -0.07874218 -0.03701347 
-0.16781418 -0.12672304 -0.07157121 
-0.28115228 0.26386693 0.105101556 
-0.15690082 0.0081630945 -0.042345546 
-0.38081473 0.36905387 0.20937738 
0.14076139 0.07896726 0.18393472 
0.2684496 0.49700284 -0.02441188 
0.055435825 0.38206977 -0.099506766 
-0.12658471 0.20223472 0.04015771 
-0.21129309 -0.012553641 0.014278041 
0.34796956 -0.072465405 0.09902969 
-0.26031616 0.022907905 -0.024330003 
-0.2714756 0.24990611 0.22712415 
0.17478335 0.35714975 -0.01140015 
-0.37983266 0.2641968 0.31144798 
-0.02829538 0.0801007 -0.015686952 
-0.12349183 -0.22760603 0.070192434 
-0.020575682 -0.4240356 -0.15689856 
-0.08227284 0.41033065 0.1263459 
-0.21695395 -0.38585553 -0.032838758 
-0.25502485 -0.32205197 -0.26688847 
0.19162016 0.24461275 -0.11264888 
0.297441 0.44419277 -0.085276775 
-0.07819925 -0.17815329 0.10280146 
0.291842 0.40741903 -0.072285354 
0.42244825 0.10675376 0.0756197 
0.47552025 0.20523956 0.017120965 
0.060234185 0.259747 0.12203902 
0.20461805 -0.3130885 -0.08406556 
-0.41159618 0.2563866 0.28708348 
0.37803134 0.34147802 0.1300227 
-0.030678248 0.36432007 0.3030517 
0.29229286 -0.2440906 -0.062447824 
0.05625134 0.35326946 0.051222865 
-0.32840243 -0.3945934 -0.20415957 
-0.26306748 -0.3453941 -0.23393905 
0.35453087 0.41458806 -0.06001039 
-0.028444316 0.16290158 -0.039492115 
0.27928415 0.465414 0.09260862 
0.31972373 -0.082002975 0.11562813 
0.2495033 0.20953992 0.099287726 
-0.22285864 0.1769601 -0.06380659 
-0.29908785 0.26424038 0.3321842 
0.12082889 -0.2042043 -0.08321511 
0.3763464 0.36480767 -0.08115639 
-0.16303897 -0.24740916 -0.09053305 
0.33189294 -0.00065127644 -0.0742222 
-0.18290645 0.3786489 0.174193 
0.03995852 -0.032307196 0.071340844 
-0.38671294 0.43165517 -0.010682138 
0.21694386 -0.107134506 0.14814577 
-0.05781397 0.3760224 0.24351914 
0.163239 -0.019755723 0.12140604 
-0.30142733 -0.3168447 0.027361993 
0.41931325 0.049308207 0.106468596 
0.015600887 0.43621564 0.07720353 
0.19162136 0.3201062 0.18705341 
-0.20607398 -0.010789056 0.027579332 
0.014682533 0.4645974 -0.107809246 
0.36761367 0.014920907 -0.067035645 
-0.3965856 0.25822064 0.21099515 
0.061948817 -0.4279249 -0.13914287 
0.27470174 0.23372306 0.12941357 
0.061499286 -0.11334774 0.0017943268 
-0.16068237 -0.043706276 -0.05749507 
-0.2668093 -0.19107302 -0.24590406 
0.16074087 -0.037435997 0.11699152 
-0.11946236 -0.28423244 -0.21984105 
-0.26739046 -0.20250547 -0.24940093 
0.42644235 0.11687027 0.07279185 
0.023582399 0.26385424 -0.025759965 
-0.1475955 -0.35618865 -0.05246438 
-0.37971443 0.27075854 0.07015061 
0.2502429 0.2047111 0.111341886 
0.32683003 0.33388892 -0.09832855 
-0.016611665 -0.11723309 -0.07405196 
-0.115880765 0.27832124 0.14951128 
-0.28746325 -0.25071847 -0.18153973 
0.029418023 0.18572713 0.18283702 
-0.16685462 0.44555682 -0.008128108 
-0.27877164 0.27020705 0.19936018 
-0.360184 -0.3884407 -0.21738802 
-0.050351564 0.045758266 0.18162738 
0.013410499 0.4416468 -0.10664405 
-0.10306309 -0.19083737 0.084611215 
0.46149486 0.22570467 0.042892568 
0.39596713 0.48372325 0.040546324 
0.053769536 -0.48721436 -0.19487813 
0.064217344 -0.19605683 -0.065136455 
0.1392527 -0.12181117 0.109130874 
0.442207 0.15648898 -0.06791429 
-0.18677862 0.2973807 0.10264817 
-0.083127275 0.26080903 0.30449572 
0.45854548 0.18716164 0.06776063 
0.3810103 -0.12501763 -0.023357634 
-0.21785162 0.17759186 0.054894753 
0.12316352 0.312271 0.09857183 
-0.20186168 -0.16855969 -0.108774364 
-0.3702079 -0.37958866 -0.23719501 
-0.11000648 0.3527989 -0.056603946 
0.098475 -0.25654116 0.091627695 
0.11461995 -0.39771557 -0.063011736 
-0.30698618 0.40557307 -0.09229567 
-0.30051383 -0.33576387 -0.31027523 
-0.2769336 -0.12208299 -0.049794786 
0.39237276 0.4938891 0.041460887 
-0.262391 0.10563525 0.20152833 
-0.32814038 -0.38032076 -0.2802357 
-0.25429162 -0.3746874 -0.14369068 
0.13602783 -0.07408047 0.009346635 
-0.17297703 0.036809333 -0.0015810332 
-0.25662786 0.27570125 0.18027261 
0.19178027 0.3351999 0.11303102 
-0.45769247 0.28211927 0.19517581 
-0.20778708 0.35285932 0.28774366 
0.16599135 0.41478318 0.1750001 
-0.23644288 0.4134792 0.08158312 
0.32554564 -0.11002078 -0.056448534 
0.06182974 0.018921267 0.060497988 
-0.02316706 -0.28527704 -0.15818319 
0.24963461 0.19845381 0.14189139 
-0.31397742 -0.22746222 -0.008140655 
0.054248765 -0.34994426 -0.27251303 
0.19691525 0.42600784 0.1696865 
-0.17342296 -0.29889882 -0.21045181 
0.31436825 -0.21877556 0.0125734415 
0.19864838 -0.024971 -0.04261899 
0.04514252 -0.34708542 -0.027954396 
-0.05648139 -0.1567015 -0.075792275 
-0.11056408 0.23052974 0.12604466 
-0.20143864 0.27977893 0.16984949 
-0.16169058 -0.3468155 -0.23791558 
-0.25332394 0.23792605 0.29491377 
0.41747743 0.44165307 0.13770615 
-0.20875178 0.42730415 0.009919785 
-0.043552652 -0.28966814 -0.23715729 
-0.27856153 -0.3606001 -0.27654234 
0.33247104 0.47361606 0.05134811 
-0.20494674 -0.1156101 0.13933937 
-0.29232842 0.2749998 0.089399174 
-0.118604854 -0.37412176 -0.23057108 
0.0937522 0.32202777 0.11323468 
-0.19952942 0.10038263 0.012502492 
-0.37194508 0.2827073 0.091352746 
0.24098665 0.32587624 -0.09434394 
0.1177951 0.47420546 -0.08697043 
-0.31832376 0.23959102 0.0659566 
0.2762141 0.4493265 0.08973247 
-0.38472632 0.36433786 -0.060771327 
-0.03241745 -0.089334495 -0.07870175 
0.10376331 0.07490361 0.1512505 
0.026377304 0.29135618 0.16040675 
0.37320688 0.23441322 -0.115089096 
0.11651734 0.43271643 0.11996239 
0.47923076 0.20967126 -0.024235856 
-0.32378584 -0.13125233 -0.30291784 
0.12338645 -0.29617375 -0.1110507 
-0.033267014 0.39325312 -0.11412981 
-0.04835156 -0.10408639 0.11921736 
-0.020445198 -0.44290853 -0.20058157 
0.06250098 -0.022912407 -0.020776093 
0.15879579 0.46235654 0.054103654 
-0.41034237 -0.2898999 -0.18433698 
0.087143205 -0.23619692 0.07085748 
-0.18245573 0.24358998 0.25986776 
-0.111287765 0.13590524 -0.053300004 
0.14031948 -0.21276675 0.1266697 
0.08423305 0.47324878 -0.10798569 
0.3328008 0.29957062 -0.099466026 
-0.35438654 -0.23118453 -0.192276 
-0.23256472 0.15915367 0.20393062 
-0.13946103 0.23291773 -0.05323126 
0.12862204 0.24764161 -0.06601286 
0.1293064 -0.30487996 0.052396666 
-0.05952446 -0.39711115 -0.15857242 
0.3525735 0.48002002 0.061148845 
0.24073693 0.21944942 -0.034571547 
-0.20039716 -0.20758148 -0.13040577 
-0.28018445 -0.12855619 -0.3507778 
0.18135446 -0.018685764 0.11826252 
0.37477395 0.4561513 0.09952682 
-0.12669912 -0.15887104 -0.10307253 
-0.25494778 -0.102738954 0.05039662 
-0.16736358 0.3697384 0.23115759 
0.25030428 0.4085175 -0.091508344 
-0.14838979 0.3892227 -0.1266841 
0.3513221 0.004191562 0.117821515 
-0.098340794 0.29204133 -0.027375314 
0.2197842 -0.20145541 0.09526691 
-0.009628435 0.2834009 0.20759478 
-0.3737001 0.35341156 0.22227974 
-0.11311104 -0.25764173 -0.04894801 
-0.10762258 0.014760166 0.116748154 
-0.030788448 0.46072438 -0.02448563 
0.0051797503 -0.44533473 -0.2157487 
-0.19820814 0.0019421412 0.049633153 
-0.07283783 0.25519523 -0.06162653 
-0.3453367 -0.25678852 -0.16184865 
-0.14607792 -0.36065826 0.006697032 
-0.070690095 -0.075808115 -0.055233777 
0.21211918 -0.23156607 0.105688006 
0.21841255 -0.3287973 -0.04266812 
-0.26003334 0.32709375 -0.04417763 
0.39266643 0.3750193 0.14986147 
0.0030554761 0.29218405 -0.020443536 
-0.43029127 0.38454315 0.0011484243 
-0.25725135 0.030146798 -0.020973781 
0.11237234 -0.19733626 -0.08225857 
0.413154 0.47666416 0.07093247 
-0.18600953 0.008705142 -0.0044022314 
-0.28907022 0.28981867 0.33575046 
-0.33526707 -0.27762377 -0.10792036 
-0.11922959 0.321751 0.015631007 
0.22765777 0.4729041 0.028208058 
-0.02245363 -0.31759724 -0.12783048 
0.0025577217 0.40640885 0.15163112 
0.18449673 -0.27798027 0.0856912 
0.29788628 -0.18280882 0.06838065 
-0.22587264 0.27349564 0.18609697 
0.05119265 -0.47361943 -0.18746392 
-0.41654858 0.29373115 0.29391026 
0.20695777 0.29927352 -0.032527216 
0.24106292 0.06431179 0.0698087 
0.067198046 -0.25030255 -0.0085092755 
-0.02677149 -0.35073608 -0.10600719 
0.18796936 0.27410972 0.087802574 
0.37319896 0.34908834 0.11257827 
0.34317845 -0.13035257 0.056910362 
-0.12476171 0.08248257 0.07777858 
-0.3004734 -0.3829582 -0.054270398 
0.050645225 -0.16041626 -0.036849566 
0.15014645 -0.15191802 -0.06715717 
-0.23524635 0.034827743 -0.045474254 
-0.10676779 -0.16387144 0.107332125 
0.19946261 0.32427347 0.0993625 
-0.08249135 0.14464712 0.12678422 
0.10220791 0.35284698 -0.08817176 
-0.02209387 0.46443406 -0.01677392 
0.31708363 -0.08436774 -0.057198696 
-0.38279885 0.23376203 0.28962594 
-0.20574363 0.2457235 0.3007747 
-0.40285704 -0.37794212 -0.21376492 
0.27928993 -0.1983752 -0.06434596 
0.18199876 0.01586975 0.152639 
0.021935679 0.1839956 0.21941555 
0.097851075 0.43922943 0.078688815 
0.11197505 -0.47913754 -0.12924847 
-0.21345265 0.43850997 -0.004588111 
0.27360582 0.4628314 0.08965516 
0.027951911 0.38575575 0.275802 
-0.025970204 0.264057 -0.05176757 
-0.21281286 -0.3129965 -0.30339468 
0.29410943 0.33308202 0.14292972 
0.32669458 0.4835379 -0.059452504 
0.049015943 0.28811708 0.2054152 
0.2206085 0.1872361 -0.10683114 
-0.29592216 0.24711439 0.32061026 
-0.12514167 -0.09796851 -0.0528608 
0.012546077 -0.073342316 0.10139106 
-0.056827493 0.22515689 0.26096255 
0.16651003 -0.36352393 -0.02118939 
0.16193627 0.20760386 -0.09125686 
0.08075723 -0.46790534 -0.0981456 
0.24307875 0.21763085 0.14893456 
0.22200648 0.20840539 0.1442986 
0.03148581 -0.108268484 -0.040742327 
0.110044785 0.30505335 0.058885656 
-0.35445544 -0.38409448 -0.13775083 
-0.0770888 0.058019463 0.09912508 
-0.19218129 0.26002443 -0.00671494 
-0.112338394 0.44437295 0.013808262 
-0.12448231 -0.31066126 -0.03622553 
0.38154554 0.08156164 -0.06476961 
0.316344 0.21239547 0.051130984 
-0.28472698 0.17846763 0.03322926 
-0.11847556 0.30390704 -0.0030546456 
-0.24407029 -0.16104549 -0.11615567 
-0.11552471 -0.32433712 0.040329248 
0.042467557 -0.022890363 0.012441069 
-0.4669164 0.3689893 0.16866402 
-0.26893604 0.12511049 0.16425882 
0.3347338 0.21404625 -0.11581208 
0.20358054 0.3575795 0.045140967 
0.41415367 0.0013529705 0.07805978 
-0.25950816 0.06823945 -0.018481482 
-0.149574 0.14748602 -0.10883952 
0.0018757042 -0.014460018 0.09910373 
-0.41110665 -0.28869173 -0.20165198 
-0.02353074 -0.3079081 -0.27105713 
-0.3529891 -0.32419953 -0.11823063 
0.3137867 0.32051373 0.20156503 
0.022431498 -0.052068975 0.07117982 
0.42154554 -0.011468127 0.051565602 
0.08440692 -0.25059676 0.044938687 
-0.38983947 -0.29709318 -0.16946575 
0.36833906 0.15748094 -0.080953754 
-0.23953784 -0.38984323 -0.116681606 
0.44309264 0.18089867 -0.06363749 
-0.11022295 -0.28370515 0.035476603 
-0.21098222 -0.38556996 -0.08221616 
0.123918355 -0.15810014 0.1002013 
0.069849715 -0.44993892 -0.12563728 
-0.33969176 -0.39824817 -0.19309251 
-0.31480804 -0.1406605 -0.32161507 
0.47465262 0.27248177 0.035102632 
-0.38224426 0.25309074 0.3122053 
0.35185775 0.093931995 0.11730351 
0.015124112 -0.28645697 -0.2101567 
-0.056999795 0.22668447 0.24249953 
0.07323721 -0.3242969 -0.24137907 
0.2682087 0.42768613 0.18201451 
0.24009146 0.49556214 -0.044256013 
0.43624774 0.15123156 0.07084718 
0.41757178 0.31864163 0.09087127 
-0.1648523 -0.32494283 -0.2249654 
-0.10717267 0.4260316 0.080241084 
0.2156984 0.32190067 0.060780328 
-0.39495805 -0.26150006 -0.28169984 
0.26221552 0.28059268 0.049309682 
0.18597692 0.25837073 -0.10935764 
-0.4334018 0.28573614 0.23802462 
0.12215577 -0.066363275 -0.004910271 
-0.122853704 0.21237199 0.06437508 
-0.26116022 -0.012773967 0.12626211 
-0.2869379 0.33210668 0.32104298 
0.035412163 0.27531072 0.25957158 
-0.4659684 0.3819699 0.119418174 
-0.068142526 0.40315977 0.15985067 
0.2066214 -0.112427354 -0.060911983 
0.09055655 -0.2967269 -0.18273896 
-0.059361607 0.1216191 0.21415581 
-0.013078813 0.3985157 -0.11991358 
0.15432958 0.40136698 0.23438483 
-0.42218328 -0.28227523 -0.12932296 
0.14884883 -0.38233575 -0.09232573 
-0.093521945 -0.3013253 -0.014134155 
0.32907754 -0.20111321 -0.01698573 
-0.3149187 0.26867944 0.09192825 
0.31652185 -0.22059077 0.004219165 
-0.111437015 0.42914212 -0.096237645 
-0.41223845 0.2876587 0.04306705 
0.36372325 0.4403585 0.15049464 
-0.4028324 -0.31706104 -0.16587165 
0.21544129 -0.20684196 0.09338631 
0.066187866 -0.19960706 -0.031074544 
0.15706813 0.47105557 0.0015368417 
0.31826285 0.49705786 -0.040727217 
0.28976387 0.49237803 -0.023627732 
0.08749434 0.14386909 0.09261202 
0.2809631 0.42465794 0.1969009 
-0.33708286 -0.24704981 -0.16071467 
-0.085688636 -0.3948608 -0.186622 
-0.28826356 0.33892173 -0.03350799 
0.17842913 -0.024716916 0.09434674 
-0.2924788 -0.10026192 -0.3164295 
-0.30701426 -0.12330704 -0.27724612 
-0.06301314 -0.032962833 0.14254306 
-0.1109338 0.2520317 -0.05940642 
-0.28828263 0.16201682 0.19283764 
0.3185452 -0.17895032 0.054752793 
-0.18838961 0.18597537 0.037240524 
0.15901038 -0.2902312 -0.090445206 
0.12484417 -0.2960703 -0.17854059 
-0.1923527 0.30223346 0.33750412 
-0.24303031 0.46667993 -0.07320854 
0.28294742 0.47817042 0.034390464 
-0.36936915 0.23843625 0.24074933 
0.059560142 0.3964671 0.2278975 
-0.24385053 0.18158378 0.17032576 
-0.3053294 -0.17598496 -0.05496168 
-0.2561609 0.3727265 0.20822161 
0.28390548 0.25858945 -0.020045962 
-0.3958395 -0.2775442 -0.18481338 
-0.35599938 0.25638163 0.22509794 
-0.18871868 0.09698144 -0.013143463 
0.27312082 -0.29956582 -0.007991168 
0.28492317 0.10364505 -0.014495632 
-0.110003866 0.36348465 0.29882666 
0.09490224 0.15276419 0.07081751 
-0.038745876 0.0687695 0.11986682 
-0.066519864 -0.15421607 0.105547816 
-0.35439155 0.25794065 0.21087156 
0.31023204 0.42939568 0.18889816 
-0.12707312 0.37101963 -0.08291425 
-0.023728086 0.0022359889 -0.04747997 
-0.005545136 0.081096105 0.11128812 
0.2213178 0.047107015 0.06721505 
-0.28252754 0.36393967 0.19938655 
0.054934375 -0.43262422 -0.16302654 
-0.26142457 -0.06126202 -0.06525992 
-0.22272177 0.21698412 0.04103627 
-0.18485767 -0.06410291 0.119031474 
0.26996174 0.43563986 0.16190574 
-0.34617218 0.27884033 0.1521633 
-0.15567675 0.03548152 -0.016835222 
0.08650408 -0.4579994 -0.15972744 
-0.2038325 0.21427718 0.28456214 
0.28424817 0.2351911 -0.1214457 
0.2377903 0.14090948 -0.063461214 
0.28418007 -0.19319256 0.07254824 
0.023939207 0.3905446 0.2412183 
0.0965109 0.069622 0.20492662 
-0.16072454 0.41632608 0.087858826 
-0.12861049 0.1446167 0.1850921 
0.23293611 0.056985762 0.018530093 
-0.16821821 0.4202599 0.06527502 
-0.18025266 -0.33801696 -0.28344288 
-0.26813817 0.20886962 0.023033895 
-0.14916801 -0.34552008 0.03980115 
-0.17003757 0.046009194 -0.031424 
0.07589461 -0.29339153 -0.114299655 
-0.026710175 -0.025180561 -0.044520736 
0.09727059 0.062364083 0.19088025 
-0.4746566 0.35941643 0.16902956 
0.22645117 0.44175947 0.13922109 
0.062908664 -0.26981106 -0.008707453 
0.41848087 0.06955279 0.07209903 
0.124180265 -0.3550966 0.010545057 
0.4158455 0.3929039 0.14831117 
0.21594971 0.20482095 0.12103172 
0.19732079 0.31618288 0.16778211 
0.10119008 0.05626766 0.16712126 
0.26242664 0.24811418 0.030752793 
0.21910213 0.47329515 0.06856653 
0.44684032 0.20325832 -0.07346364 
-0.11043467 0.33520928 -0.04699125 
-0.09078197 0.3550027 -0.03827447 
-0.33867595 0.3740378 0.18506986 
-0.108849965 0.2423332 0.22912478 
0.04846404 0.19690955 -0.038961366 
0.06429764 0.054617498 0.011003271 
0.3284446 -0.20334756 0.0055509 
0.27837306 0.22518411 -0.12019312 
0.35936648 -0.0982672 0.073734224 
-0.29693052 -0.17596978 -0.062946625 
0.14773415 -0.30089277 -0.17775917 
-0.2970499 0.2925491 0.08983276 
-0.47036567 0.30596772 0.17053047 
-0.2548294 0.38969943 0.14454527 
-0.1290835 -0.19723742 -0.10422604 
0.18833712 -0.04675111 -0.0163127 
0.06908195 0.21748 0.11308814 
-0.04292493 -0.28587916 -0.16045429 
-0.056625295 0.20545442 0.21849827 
-0.1015035 0.0032080067 -0.06504887 
-0.1285571 0.33844036 0.011117177 
-0.21242224 -0.3263369 -0.29617798 
0.03558011 -0.47866416 -0.20967735 
-0.047373794 0.18063124 -0.050351363 
0.41692844 -0.013282798 -0.052919757 
-0.24836949 0.12986897 -0.008377102 
-0.09174254 -0.18311574 -0.09227197 
-0.2022883 0.3115925 -0.036739536 
0.04298247 -0.3018846 -0.105850406 
0.22595315 0.33150592 0.14431803 
-0.22864538 0.05306687 0.14229375 
-0.19875225 -0.3396441 -0.26895413 
-0.18950541 -0.34425205 0.055141658 
0.16608612 -0.36181983 0.0011733209 
-0.2655049 -0.2841457 -0.17322439 
0.26941133 0.3129002 0.23247296 
0.027955052 0.15073211 0.21954617 
-0.22757353 -0.05943177 0.044340298 
-0.17642875 0.13469456 -0.024923187 
-0.33198878 -0.28488 -0.089714 
-0.38629916 -0.2747612 -0.3059567 
0.08442433 -0.20525204 0.07245944 
-0.18916358 -0.0300095 0.1419359 
0.14945331 0.48124683 -0.038912557 
-0.113488026 -0.2578358 0.06549062 
0.27067223 0.08978832 -0.014416607 
-0.105159216 -0.26391047 0.054579996 
0.15129134 0.28153434 -0.068712234 
0.41569075 0.4524234 -0.001847757 
0.067410246 0.21531536 0.11712627 
0.10360738 -0.2972005 -0.115038246 
-0.33122894 0.3505018 -0.06389466 
0.20914319 -0.23737924 0.096821174 
-0.18465562 0.08837547 -0.060856003 
-0.2659959 -0.19855782 -0.12051594 
-0.2876873 -0.40354118 -0.08603284 
-0.270432 0.40109882 0.11369029 
-0.2874961 -0.26144207 -0.14720288 
0.06323668 0.29214296 0.01703649 
0.24656808 0.023086976 0.10049974 
-0.3321638 -0.2879882 -0.090406656 
-0.24549526 0.038006786 0.13930897 
-0.064032845 0.3380157 -0.03838095 
-0.26973754 -0.25280654 -0.27822995 
-0.22466002 -0.39341566 -0.09331825 
-0.18953472 0.2464956 0.2942355 
-0.02410475 -0.09669107 0.1098292 
-0.10356001 0.22598343 0.14369452 
-0.31127304 0.33128387 0.0024760142 
-0.022085061 0.23516412 0.2631311 
-0.3685316 0.39076385 0.13190909 
0.43807557 0.079392195 0.06291122 
-0.15702946 0.19169304 0.036371265 
0.013470734 0.30908185 0.30156738 
-0.28792337 -0.34557694 0.021390317 
0.37755254 -0.03165824 0.09879272 
0.041330233 -0.29825497 -0.025055341 
0.38868314 0.2920341 0.11786965 
0.18422322 0.25532782 0.12297653 
-0.07670677 -0.13631669 -0.09343005 
0.2878436 0.4636071 0.05705738 
0.43444678 0.31653616 -0.00056304294 
0.089040056 0.47510567 -0.017242257 
-0.2913726 0.286031 0.13790332 
0.03582482 0.27041802 0.29528064 
0.319929 -0.07264887 -0.07360545 
-0.42667094 0.31286743 0.038965546 
-0.31707996 0.26288834 0.20883784 
0.3504429 0.024297386 -0.07001677 
-0.029120725 0.23577292 0.20360206 
0.13131826 -0.037784353 0.17021969 
-0.26814273 -0.22544184 -0.2773741 
-0.24013019 0.3411205 -0.022479068 
0.0056794826 -0.09087601 -0.08055159 
0.30260733 -0.22335315 0.044081375 
0.46938404 0.20711035 0.044667248 
-0.22221625 0.09543017 -0.076955125 
0.1771389 0.40986794 -0.10120639 
0.18424344 0.17947428 -0.087983415 
0.31291622 -0.1415437 0.07651141 
0.08321907 -0.20290636 -0.08817692 
0.35033014 0.04743261 0.12479055 
-0.053303722 -0.15769069 -0.068469726 
-0.101185605 -0.3075716 -0.17778584 
-0.15207256 0.3995143 0.15722682 
-0.21621652 -0.27965167 -0.22991 
0.04168202 -0.050521158 0.027241321 
-0.23987627 -0.014534701 -0.057363108 
-0.2359324 -0.09151915 0.15157196 
0.25499728 -0.23938264 -0.07445421 
0.043642018 -0.30879524 -0.22256573 
0.022739708 0.2620772 0.21485338 
0.23269941 0.3245662 0.24166827 
-0.3860323 -0.33686852 -0.14671206 
-0.0634202 -0.12273358 -0.0908729 
0.27716726 -0.2885876 0.005578451 
0.13183498 0.40505594 -0.10394668 
-0.28116545 -0.14835456 -0.301947 
0.14278868 -0.24340834 0.11970851 
-0.2027758 -0.005550765 -0.01155905 
-0.14473483 0.24689817 0.31953505 
-0.14726537 -0.062081687 0.122968614 
-0.25865605 -0.28614438 -0.16900949 
-0.36594552 -0.35861164 -0.2969606 
0.28899893 0.31215847 0.21808861 
-0.2922566 -0.2614174 -0.33720335 
0.12382422 -0.03810222 0.15698746 
-0.34742725 -0.38036075 -0.24635808 
-0.07671252 0.16079439 0.13664947 
0.08137467 -0.21240893 0.04605499 
-0.24903126 -0.35723558 0.054148357 
0.26289126 0.3298644 0.036815282 
0.35161304 0.06574971 0.11205923 
0.09377742 -0.07216903 0.012285888 
-0.28313643 -0.18411447 -0.12259341 
0.06566614 0.34075418 0.06293613 
0.41703945 0.24714571 0.09919821 
-0.27064213 0.18470675 0.16915026 
0.36069673 -0.115472354 -0.03163928 
0.35388124 0.49685246 -0.030234966 
-0.23882142 0.19715257 -0.019960314 
0.022579424 -0.4529217 -0.1667132 
-0.20593232 0.3148668 0.0809085 
0.030172836 -0.47156313 -0.19530694 
-0.20327099 0.07083035 -0.03352695 
-0.24329995 0.21188107 0.0738613 
-0.27919593 -0.16710168 0.103793286 
-0.26695028 -0.22171964 -0.24155429 
-0.3118976 0.38022348 0.1467669 
-0.36660585 0.33671382 0.2887852 
0.051320136 0.09766467 -0.018560005 
0.24817695 0.2702973 0.061671786 
-0.005389143 -0.44042256 -0.16618592 
-0.31781074 -0.21000661 0.013409197 
0.28771034 0.4805017 0.01540046 
-0.26375857 0.18569043 0.21258028 
0.072458975 -0.3815333 -0.26384327 
0.31487346 0.23820575 0.05964225 
-0.36158448 -0.31682748 -0.09308339 
-0.04433929 -0.31105584 -0.2621519 
-0.114399634 -0.29344824 -0.18126574 
-0.1045976 -0.17405461 -0.1037448 
0.25329366 -0.24870501 0.063481756 
-0.15521462 0.2680374 0.3326074 
-0.13142633 -0.19297047 -0.1012594 
0.1386701 -0.32367128 0.05049998 
-0.31041327 0.33599058 -0.06588306 
0.4170321 0.20964576 0.111907214 
-0.23712802 0.3711542 -0.11260166 
-0.15940616 -0.35956496 0.035252146 
0.30471686 0.1481839 -0.044970375 
-0.20655245 0.32267037 -0.020276954 
-0.21447125 0.26079598 0.32011586 
0.055791423 0.3802023 0.2923191 
0.23462556 0.33736908 0.2471097 
-0.16557942 0.09286334 -0.07811291 
0.096414946 -0.057394743 -0.03652398 
-0.3021887 -0.18808557 0.054538123 
0.18788368 -0.10961143 0.15726265 
-0.11516105 0.16928098 0.2137068 
-0.20647062 0.15465556 -0.023040319 
-0.29505435 -0.1292777 -0.3490427 
-0.103696786 0.25571948 0.19091514 
0.18431656 -0.03781312 0.16872193 
0.006558162 0.3621469 -0.04607268 
-0.030907877 0.23911639 -0.059320215 
-0.265684 -0.15808183 0.11532207 
0.05676686 0.318793 0.06772374 
-0.08400448 0.112223014 -0.0095364265 
-0.24219841 0.40578717 0.10176764 
0.02892598 0.46054676 -0.0040359506 
0.005375214 0.47430503 -0.08638629 
0.22781806 0.4776724 0.005922435 
-0.3970851 -0.26251778 -0.28535914 
-0.30747694 0.26005703 0.12263274 
-0.102849804 -0.095195554 0.11608811 
0.22922717 -0.27383822 -0.08259448 
0.23489739 0.050706163 -0.015033964 
0.42813665 -0.017167501 0.040441565 
0.43297273 0.09610488 -0.05588849 
0.3230245 0.17587687 -0.09025307 
0.23022093 -0.23685001 -0.07473254 
-0.09440569 0.1749045 0.22182012 
0.04235079 -0.11106845 -0.05240544 
0.04926391 0.47806057 -0.096449375 
0.16265371 -0.044204965 -0.0058086338 
0.30504635 -0.0436097 0.12782659 
0.10912445 0.284658 0.23980531 
0.12828705 0.39059037 0.26892334 
-0.17348212 0.38023272 0.19528039 
0.059103582 0.43936253 0.07429129 
0.32101578 0.42757836 0.19048762 
-0.14909016 0.36106715 -0.08670278 
-0.39456213 -0.26599354 -0.21222177 
-0.30452242 0.3412897 -0.022270394 
0.0346581 -0.01928057 -0.011117059 
-0.24689454 -0.04845816 0.10531872 
-0.35427773 0.27576402 0.15222304 
-0.24187486 -0.3521878 -0.24906452 
0.35043344 0.12098358 -0.05793452 
0.086110905 0.21290089 0.072182745 
-0.29875177 -0.4069934 -0.15781416 
-0.38627288 -0.21459605 -0.2858262 
-0.117469236 0.4706602 -0.079977795 
0.10030846 0.40083972 -0.100871675 
0.30706957 0.41891974 -0.08254471 
0.15204804 -0.20926757 -0.086206004 
-0.22711486 0.007095795 -0.013805923 
-0.07328857 -0.40729406 -0.19228597 
0.08107251 0.12093993 0.10447841 
-0.21062657 0.26568052 0.029974435 
-0.10938934 0.23578146 0.15472163 
-0.120263994 -0.2695388 0.051094484 
0.15684107 0.2734051 -0.08414446 
-0.09746102 0.2648375 0.23423588 
-0.19134672 0.2228452 0.23981008 
-0.35901362 -0.33456025 -0.11107192 
-0.12994677 0.4521502 -0.014127482 
-0.1780087 -0.059549086 -0.078795336 
-0.3694349 0.41240916 0.03796422 
0.23841825 0.18525545 -0.10698446 
0.019136103 0.23647486 -0.03377799 
-0.269865 -0.39527115 -0.1537257 
-0.2013779 -0.28201807 -0.251332 
-0.23166566 0.01904222 -0.04961675 
0.12771651 -0.05179028 0.15083554 
-0.1613396 0.23285368 0.24540295 
0.017363753 0.040432148 0.10618231 
-0.04576329 0.38599902 0.23824468 
0.29784334 0.37735906 -0.05667469 
-0.13968785 -0.031082662 -0.05771203 
-0.23765653 0.005122015 -0.05047791 
0.209056 0.3754655 -0.08834602 
-0.332895 0.4281044 0.009330804 
-0.13685995 0.12296013 0.18583925 
0.02306263 0.21516718 -0.042714145 
0.05699796 -0.17729335 -0.06000539 
-0.19447504 0.08518157 -0.023120668 
0.41913152 -0.067287765 0.020962624 
-0.09939767 -0.26840913 0.0054347515 
0.34721646 0.37304458 -0.08066942 
0.16612414 0.49330738 -0.06452992 
0.1527852 -0.3596394 0.027702853 
0.12484267 0.10044372 0.16853711 
-0.24395634 0.3087416 0.073873125 
-0.11864027 0.124424145 0.22244015 
-0.08329851 -0.39679956 -0.19447935 
-0.16710295 0.037217975 0.018949268 
-0.12744968 -0.19205602 -0.11345554 
0.33070093 0.061636962 -0.059746638 
0.26638862 0.16037507 -0.08335388 
0.10186809 0.30707094 0.2761848 
-0.05637714 0.031780634 -0.054382112 
0.06740133 0.09385091 0.0301558 
0.36074919 -0.12258398 0.05902208 
0.078396074 -0.23005977 0.049607575 
-0.3463483 -0.28899625 -0.12314342 
0.006536739 0.17235166 0.19248709 
-0.30667716 -0.18584733 0.058049504 
-0.17046024 0.097034514 -0.056853294 
-0.1501531 0.4347748 0.025886305 
0.30609187 -0.05551334 -0.09401198 
-0.19472079 -0.011674669 -0.000263664 
0.44585493 0.33365995 -0.01623782 
0.05935111 0.41460901 0.17767471 
-0.109983884 0.27151558 0.18926588 
-0.3475078 -0.39045224 -0.12107437 
-0.18079792 0.03760608 -0.0064112786 
0.027631123 -0.053011864 0.083830655 
0.13500634 -0.3137612 -0.090712816 
0.15413138 -0.21162406 -0.09880094 
-0.24226348 -0.038072858 -0.029739216 
0.23746215 0.33238477 0.13849619 
0.24715005 0.3965149 -0.07297668 
0.20713039 0.15464002 -0.070939004 
-0.22363365 0.15731156 0.19359292 
0.16720012 -0.3547958 0.0090598585 
-0.305453 0.21705961 0.2469258 
0.4007031 -0.10855076 0.017990433 
0.20064056 -0.19181201 -0.08803281 
0.030622832 0.010664654 0.08854213 
0.3736047 0.43185169 0.17886344 
0.0479419 -0.2939703 -0.01788694 
-0.10621628 -0.18625593 0.09942661 
0.04517748 0.3370159 0.2975115 
0.01066263 0.18951987 0.22823401 
-0.19190256 0.24699749 -0.029665802 
0.104436785 0.32948807 0.039428197 
0.10842167 0.44199586 0.05887585 
-0.22470959 0.32151917 0.059161965 
-0.39374545 0.30070052 0.31623238 
0.014165662 -0.04544446 -0.03978258 
-0.31258994 -0.29363212 0.032378715 
-0.24765162 -0.01310847 -0.043551724 
-0.08700488 -0.16944617 -0.071891606 
0.07829918 0.1539937 -0.011242642 
-0.3585019 -0.24467264 -0.3220723 
0.38754192 0.10448381 0.095301524 
-0.03775968 0.37140593 0.29678726 
0.08904264 0.16807505 0.011259385 
-0.32723692 -0.2945828 -0.08131066 
-0.26106682 0.2652163 0.076081805 
-0.12530321 -0.14185609 -0.09121805 
-0.27262282 0.18355523 0.06963904 
0.013282783 0.082333624 -0.029656416 
-0.3040498 0.4267382 0.016260104 
-0.34034383 0.20550019 0.27714184 
0.007927284 0.48095345 -0.062317867 
0.23208407 0.15900874 -0.10740852 
0.32211134 -0.18349564 0.050204623 
0.20738597 -0.07283865 0.13594653 
0.18429014 0.35160244 -0.056894664 
-0.3024349 0.43197203 -0.0032488164 
-0.31264147 0.4086832 0.10158044 
0.42031392 0.057376463 -0.057649337 
-0.092927106 -0.10589348 -0.056214366 
-0.30687228 -0.20692082 0.037697986 
0.1368868 -0.124045834 0.14415744 
0.13024278 0.20322146 -0.08615436 
-0.22760476 0.16334006 -0.06289019 
-0.35030082 0.27731422 0.107288145 
-0.2672212 -0.12741977 -0.039721094 
-0.3254187 0.3439473 -0.048819114 
0.04312255 -0.30883822 -0.009190444 
-0.34128547 0.27273586 0.10847779 
-0.26902786 0.10295709 0.1762563 
-0.014647031 -0.12492905 -0.07075508 
0.079797715 -0.25786293 -0.047074903 
0.11284053 -0.23629208 0.12906963 
-0.14940639 0.37548822 0.23037782 
0.27424416 -0.24004433 0.05933982 
-0.29387477 -0.18528727 -0.08242793 
0.03385874 0.27665192 0.28811234 
0.104832485 -0.3720253 -0.18761963 
0.40414405 0.45329586 0.13838069 
-0.2700925 -0.034886725 0.15238376 
0.33938083 0.32562873 0.12830934 
0.07139389 0.29847533 0.057769805 
-0.27665982 -0.19080074 -0.2754106 
0.021591522 0.47204524 -0.026103584 
-0.28158322 0.15239516 0.20042986 
0.17114395 -0.14515442 0.14019826 
0.19325621 0.37159652 -0.030597836 
0.22597852 0.33593214 -0.09080628 
-0.25069556 0.06742993 0.17365457 
-0.19893645 -0.31250095 -0.2247046 
-0.19775723 -0.30589452 -0.2697125 
0.03209827 -0.37023968 -0.049565196 
-0.227715 0.13543475 0.035056848 
-0.25084665 0.1095555 0.021137094 
-0.42785436 0.32097626 0.28043282 
0.16239192 -0.009613445 0.14050165 
-0.16352803 0.35148498 -0.029999945 
-0.048538905 0.09037976 0.17597543 
0.24987946 -0.30939102 -0.03613192 
0.24917348 0.33170047 0.14944698 
0.23627073 -0.26585707 0.049984857 
-0.33446077 -0.21662116 -0.32078877 
0.11480586 -0.21840727 0.13145475 
-0.47385105 0.28628385 0.14066587 
0.4208973 0.13424137 -0.07192471 
-0.09374374 0.42301092 0.09083448 
-0.07739219 0.27391186 0.33164543 
0.00023918302 0.22552577 0.25934952 
0.19969797 0.47153702 0.058218107 
-0.4195613 0.295674 0.04896263 
0.027215382 -0.30172458 -0.12801325 
-0.2262828 0.13903044 0.036217492 
0.31060672 0.12654784 -0.031966373 
0.06722167 0.25632012 -0.0066824784 
-0.16142479 -0.34172165 0.04717765 
0.2934634 0.13835123 0.032640304 
0.019196538 -0.06917466 0.07993613 
0.048480667 -0.07829598 0.00046977474 
-0.14619903 -0.10831529 -0.06295103 
0.34870067 -0.07731716 -0.0625009 
-0.16536868 -0.24967308 0.09394175 
0.43075493 0.3687338 0.07617212 
0.068097964 0.11861348 0.013543239 
0.43891972 -0.01794085 -0.014531269 
-0.47203737 0.3427639 0.2069773 
0.0056907423 -0.06059282 -0.06325804 
-0.23221703 0.3670044 -0.086793944 
-0.45997238 0.34272593 0.22074826 
0.17099515 -0.23163882 0.11867949 
0.27968475 0.4081609 -0.07557201 
-0.10065871 0.06659036 -0.024779027 
0.05092969 0.40656102 0.18921202 
0.025068527 0.15652901 0.18974465 
0.19512959 0.32450426 0.15674342 
0.10519097 0.31224138 0.0992165 
-0.071325146 0.3739222 -0.076353945 
-0.05956103 0.1518787 -0.025601236 
-0.0071349777 -0.15030773 0.053563405 
-0.11268054 0.12050329 0.22521873 
0.22843514 0.34851846 0.23605593 
-0.24502864 0.3238518 0.05336174 
0.18094303 0.15080902 -0.07661639 
0.29000524 0.30232313 -0.00445834 
-0.10713027 0.29938504 -0.006088832 
0.03204846 -0.087700635 0.025768815 
0.17792085 0.3372995 0.051453006 
0.069739066 0.41910094 -0.11699684 
-0.24621062 0.15846963 0.20679753 
-0.46849883 0.3460526 0.19986802 
-0.27433255 -0.1974773 -0.29396203 
-0.014813166 0.15966402 0.18004513 
-0.094887994 -0.20204231 -0.04678779 
0.082769915 0.35085514 -0.053036265 
-0.34300762 0.3532586 -0.07688288 
0.30575827 0.42526215 0.1933863 
0.15619828 0.3966356 -0.0800154 
-0.25943032 -0.26391485 -0.2294108 
0.1106565 -0.3855349 -0.030647416 
0.062212 0.11520218 0.18810752 
-0.17916614 -0.34482822 -0.26643458 
-0.05484499 0.04078811 0.13140838 
-0.22649278 -0.03543027 -0.07480216 
0.2116012 0.14939538 -0.05726308 
0.15089817 0.2055433 -0.043887064 
0.17822713 -0.27977034 -0.12752739 
0.014907392 0.25787675 0.20976987 
0.41874567 -0.040792733 -0.035081048 
0.18195467 0.3332198 0.10348477 
0.13304783 0.4197934 -0.097057 
0.06861403 -0.45087248 -0.119344026 
-0.18632172 0.015432352 -0.012523951 
0.2986265 -0.23306909 -0.03731593 
0.18303154 -0.3329398 0.030266024 
-0.2183838 0.35277653 -0.069878414 
0.009959857 0.21569622 0.24261913 
-0.13773386 0.10863878 -0.065184265 
0.10237734 0.34615046 -0.050808825 
-0.094131395 0.14035317 0.22688955 
0.15443374 -0.34294957 -0.12906522 
0.13717543 0.18513653 -0.06690606 
0.33818907 0.2118808 -0.11374799 
-0.18049231 0.08865812 -0.017767448 
-0.33909643 0.36390057 -0.09502312 
-0.051689476 0.33496833 0.0016978206 
-0.23016845 -0.102110535 -0.09832614 
-0.33306113 -0.3100434 -0.07942812 
0.32467422 0.33767965 0.13785204 
0.18045476 -0.0727189 -0.023956591 
0.10959503 -0.40558574 -0.114233986 
-0.4210383 0.3594195 -0.018567903 
0.15728241 -0.21198921 -0.08820297 
-0.27388316 0.26081508 0.24250825 
0.26679122 0.0071708574 0.12269454 
0.018328795 -0.45322815 -0.23100711 
-0.2006179 0.20641811 0.036243122 
0.06342392 -0.489414 -0.17114447 
0.18877539 0.31374556 0.1806314 
-0.0005807197 0.3620849 0.27700406 
0.32464007 0.45705748 0.11762972 
0.11764458 0.40520674 -0.097542465 
-0.2743593 -0.0875424 -0.0602098 
-0.10502615 0.1727534 0.013761828 
-0.02006238 0.2231114 0.263201 
0.20605554 -0.24572547 -0.09744972 
-0.34816855 -0.19675574 -0.24955446 
-0.22704735 -0.06914041 0.0976149 
-0.17727429 0.2887773 0.0220109 
0.1102814 -0.24215691 0.11255509 
-0.08917015 -0.30129722 -0.008645307 
0.18976815 -0.28366587 -0.14461014 
0.41739205 0.3856743 -0.026002144 
0.216329 -0.033219676 0.15310167 
-0.035940982 0.059436813 0.10353967 
0.029104196 -0.4756296 -0.19718765 
0.09249594 -0.3289165 0.027517784 
0.39440337 0.47303843 -0.013600033 
-0.20289777 0.3593374 0.28722304 
-0.013980699 -0.3614443 -0.2883685 
0.44287372 -0.005606936 0.0011053304 
0.090768114 -0.30382073 -0.18449523 
0.05958299 0.044509023 0.0032267468 
0.06596161 -0.030512951 -0.036246963 
-0.38413846 -0.3665417 -0.26482144 
-0.02611295 0.060297046 0.118059136 
0.064094774 -0.20828399 -0.05879978 
0.069609486 0.2904318 0.21237767 
0.41939357 -0.0709813 0.0038429117 
-0.21508719 -0.16888961 0.12474351 
0.27248213 -0.093847916 0.12124747 
-0.27251077 0.36954653 0.22368626 
0.05291674 0.27180526 0.27088076 
0.1331532 -0.313532 -0.21021664 
-0.4702946 0.36140007 0.072659485 
-0.19948846 0.09646006 0.17362869 
0.097021356 0.27491346 0.070606396 
-0.18784536 -0.021597268 0.15643956 
-0.20115046 0.11411754 0.0112017635 
0.32167956 0.18067445 0.059981685 
-0.11599916 0.3923467 0.2383544 
0.047492124 -0.33166325 -0.26539788 
-0.2981119 -0.16393164 -0.059067726 
0.047620326 0.03619189 0.075651385 
-0.057119895 0.32977694 -0.025058413 
-0.08701676 0.16821697 -0.07083194 
-0.023596745 -0.356649 -0.10554043 
-0.3463145 0.23394082 0.21262468 
0.39195547 -0.07086937 -0.05004604 
0.27473366 -0.04417126 -0.06833403 
-0.21839601 0.3587146 0.2656348 
-0.22926493 0.40886894 0.10108635 
0.06393336 0.43810448 0.081716 
-0.012241425 0.22125903 0.2201572 
-0.22617726 0.46231696 -0.07654475 
0.13285314 0.17669678 -0.07869926 
-0.43898997 0.34168884 0.004091733 
0.17123598 0.351253 0.022417102 
0.020052522 0.29293948 0.2923442 
0.04974909 -0.41186664 -0.2536805 
-0.057209592 0.14682339 -0.026554918 
-0.06451011 0.3892226 0.20273598 
-0.010358012 -0.30318972 -0.14564809 
0.014632101 0.29651347 0.17919557 
-0.026237693 0.079441376 0.16136445 
-0.34357232 0.24665935 0.23354411 
0.19880456 0.22347231 -0.11159683 
-0.21446963 0.16768484 0.0068279933 
0.19670445 -0.2114573 0.11254993 
0.0793396 0.49306038 -0.081831634 
0.20207533 0.48604304 -0.081136465 
0.42171684 0.039550193 -0.05204044 
0.19803979 0.43635055 0.14219326 
0.20386954 0.33557504 0.12353408 
-0.2548438 0.21231775 0.07184133 
-0.18029122 -0.28317562 0.08116306 
0.21997878 -0.273134 0.07397933 
-0.2648556 0.07759528 0.14358957 
0.32642832 0.34275314 0.1410342 
0.0034169238 -0.10565054 0.06254687 
0.38381428 -0.028515046 -0.0633005 
0.44965583 0.0049652597 0.0075438092 
0.01927346 -0.012159068 0.082032524 
-0.36477545 0.349858 0.23828223 
0.11384451 -0.37930885 -0.029677894 
-0.27889046 -0.405169 -0.08963298 
-0.3578055 -0.20713548 -0.29445165 
-0.102651656 0.1004312 -0.0016817795 
0.100337565 0.2992068 0.076310344 
0.42315447 0.25952253 -0.08394693 
0.08773829 -0.42180374 -0.17365429 
-0.24849482 0.31821233 0.34948587 
0.16538586 -0.26879582 -0.13815129 
-0.23992981 0.0031042653 -0.050589316 
-0.32458183 -0.32186916 -0.31062913 
-0.26955512 -0.2318053 -0.23431228 
0.3247857 0.08258603 0.09899684 
-0.31102708 0.19610733 0.25156912 
-0.12077944 0.4542303 -0.018818814 
0.15220687 -0.07651572 0.11429944 
-0.22916014 0.11715567 -0.07679191 
-0.3548662 0.24986674 0.22734393 
-0.11620194 0.18068995 0.17149088 
0.1906441 -0.04431694 -0.017598163 
0.090204395 0.15203542 0.08717992 
-0.21551603 0.34686172 0.2765946 
-0.14294684 0.103602186 0.19398302 
0.29378504 0.15983866 0.015028972 
0.3667069 0.43292296 0.18833813 
