-0.0635498 -0.42593396 -1.9039882e-05 
-0.11991268 -0.37463233 0.16709249 
-0.06580499 -0.40779814 -0.014246319 
0.1566597 -0.107197054 0.12901361 
-0.15027204 0.10613902 -0.03665851 
-0.07431712 0.11103937 0.23608276 
-0.00047696757 -0.2981372 0.15042609 
0.08648342 0.1725185 -0.11115289 
-0.2208202 0.0461072 0.08504169 
-0.29300225 -0.14942497 0.15938504 
-0.244692 -0.43458715 0.22593674 
0.18219219 -0.34749606 0.10711739 
0.05827162 0.10963816 -0.17793371 
-0.12191741 -0.19896497 0.2159187 
-0.3145236 0.13746956 0.24021812 
0.22235398 0.09511572 0.07166265 
-0.106611624 -0.2710486 0.19287801 
-0.1603588 0.079500824 0.20839387 
-0.11625843 0.043404534 0.22303778 
0.3295056 0.15920533 -0.019239716 
-0.1427451 -0.30559003 0.17428844 
-0.28114933 -0.028869934 0.2365298 
-0.28338358 -0.22865026 0.13898998 
-0.18912284 0.14536028 0.11397011 
-0.18150094 -0.48193938 0.19203769 
-0.122017026 -0.42757735 0.10260016 
-0.020158935 -0.4546126 0.10446019 
0.07717962 -0.45101902 0.09695197 
-0.0035647869 -0.1932538 0.19023655 
-0.19898188 0.0737611 0.05349952 
-0.19444375 0.113361694 0.10478584 
-0.23963106 -0.33698374 0.17718478 
-0.030665716 -0.4322608 0.15706038 
-0.09372158 -0.34267497 0.14169295 
0.19045028 -0.35208732 0.09557518 
-0.15614145 0.032434437 0.2116793 
-0.06250338 -0.20568721 0.22605471 
0.13276441 -0.36749586 0.031852216 
0.08992028 -0.366304 0.07187687 
0.16839851 0.41932604 -0.20781006 
-0.1535077 -0.10326367 0.229435 
-0.23165804 0.18067434 0.2070695 
-0.010895398 -0.036378462 0.20952938 
-0.017168535 -0.059317388 0.121671595 
-0.117772 0.018563563 0.015782237 
-0.25311917 -0.41759723 0.13553283 
-0.07937757 0.10830572 0.14336869 
-0.30845353 -0.17901744 0.21001855 
-0.009171905 -0.18867274 0.12185751 
-0.26632607 0.16073868 0.21053894 
0.058115978 0.121031396 0.20242019 
0.12170554 0.44540372 -0.20065738 
-0.052117445 -0.10083208 0.14983492 
-0.23770659 -0.45541096 0.21360548 
-0.29114053 0.18067431 0.20169008 
-0.0006365726 0.16073865 0.11760555 
-0.06684645 -0.13215172 0.2427017 
-0.13374804 -0.2738725 0.09211857 
0.3019544 0.13813604 0.053620026 
0.08715376 -0.1443432 0.107570976 
-0.3067587 -0.06730632 0.16912152 
-0.17407599 0.16073865 0.1328588 
-0.010492204 -0.041504916 0.09924784 
-0.021286344 -0.21288596 0.14295775 
-0.035536762 0.16827318 0.009325838 
-0.3596807 0.14983478 0.1293538 
-0.08437267 -0.121469766 0.19607083 
-0.13761513 -0.3975217 0.23742194 
0.17740498 -0.38724345 0.09508192 
-0.22640379 0.037682574 0.10710972 
-0.32775652 -0.12451697 0.21001437 
-0.08100624 -0.31504592 0.055877313 
-0.036831915 -0.46830484 0.22523396 
-0.015543182 -0.33724177 0.06510046 
-0.23950168 -0.29607418 0.1519008 
-0.29442075 -0.17964897 0.22641587 
0.06459175 0.1538373 0.076675326 
0.032633357 0.047157623 0.04858999 
-0.1608041 -0.3094626 0.13819651 
0.09562855 -0.12980433 0.055440903 
0.09082967 0.016926575 0.15007344 
-0.27588698 -0.021254659 0.23013635 
-0.11273631 -0.0027162975 0.024543282 
-0.004826713 0.12363017 0.027437838 
0.08052473 -0.32244366 0.068783246 
-0.22356322 -0.06519852 0.19441494 
-0.09320261 0.06717376 0.25218946 
0.021366322 -0.00078508625 0.20891403 
-0.3040512 0.086035386 0.2686801 
0.07578043 0.2515475 -0.11963407 
0.070990205 -0.12727222 0.07097706 
0.027156096 0.1809995 0.19923109 
-0.045492586 -0.2890035 0.12636109 
-0.035696853 -0.14257246 0.08545469 
0.004238554 -0.30828506 0.15914823 
0.041520946 0.0938634 0.041043237 
0.052151524 0.13174331 0.21057706 
0.11683399 -0.35026252 0.104720086 
-0.1721933 -0.011060094 0.06796834 
-0.28936604 -0.10316214 0.26121148 
0.078455836 0.13178071 -0.1980988 
-0.050858885 -0.100510865 0.16394572 
-0.07839822 0.18067434 0.19686434 
0.01754686 0.1461604 0.032584198 
0.025933033 0.15075006 0.2034832 
-0.31140533 0.06437889 0.12718171 
-0.15438789 -0.137234 0.04883561 
0.0396907 0.18106128 0.10620366 
-0.21768571 -0.47977045 0.1807094 
-0.22935776 -0.049583368 0.113625616 
-0.3327506 -0.092868045 0.21694602 
-0.11200654 -0.35529563 0.16123033 
-0.1922436 0.059312977 0.073184185 
-0.03618765 -0.44148117 0.09460949 
-0.26634786 0.18067433 0.14210698 
-0.112695664 -0.39820424 0.007871957 
-0.04188516 -0.31083167 0.06344532 
-0.28160197 0.06142183 0.08932929 
-0.11833078 0.09308865 0.13828039 
0.03219418 0.13838287 0.0941467 
0.06297394 0.14735715 -0.087860554 
0.17368276 -0.15192705 0.07642245 
-0.0022861324 0.17091826 0.23556131 
-0.1811339 -0.18887773 0.042091552 
0.007046006 -0.27547303 0.13907751 
-0.32271245 -0.078064926 0.1771166 
-0.1376085 0.099085644 0.20949121 
-0.06874127 -0.424357 -0.004402664 
-0.18175852 0.16073865 0.22642332 
0.09898091 -0.31022388 0.058128595 
-0.277542 0.1810099 0.21568389 
-0.09413482 -0.14727591 0.2146326 
-0.06671681 -0.31728378 0.014648832 
-0.25428715 -0.08587048 0.21068794 
-0.10643411 0.16073865 0.26218864 
-0.07086678 -0.071903534 0.08438302 
-0.03371219 -0.45179796 0.10826829 
-0.0545866 0.12109936 0.06482575 
-0.069546126 -0.16259581 0.06490604 
-0.2467852 0.18067434 0.19191739 
-0.122933246 -0.040979505 0.2215547 
0.009794665 0.17505428 -0.058582343 
-0.24589182 -0.3709819 0.22698402 
-0.21626903 0.053466395 0.15167186 
-0.016296465 0.16073865 0.08255557 
-0.1110555 -0.30691114 0.056873232 
-0.24740605 -0.3549994 0.11967888 
0.06873198 0.20782897 -0.12611938 
-0.25662455 0.16070601 0.22167395 
-0.050657645 0.015965795 0.010240471 
-0.21161513 -0.09280252 0.1931689 
0.10619401 0.27670944 -0.21311666 
-0.22456877 -0.11552285 0.13226293 
-0.020758633 -0.169949 0.100244716 
0.3494374 0.17653275 0.0034716185 
-0.11501337 -0.45159352 0.2457213 
0.117231816 -0.2757792 0.1250526 
-0.22298071 0.09006662 0.22671047 
-0.26097974 -0.11116233 0.24838284 
-0.026367012 -0.29629898 0.11750381 
-0.08826332 -0.10643398 0.20133866 
-0.1759114 -0.20320234 0.21447638 
-0.14406857 0.071097404 0.10609958 
0.093900084 -0.26219064 0.12938488 
-0.14706676 -0.32295385 0.05541061 
-0.07920617 -0.42568645 0.16684575 
-0.11832508 0.11729024 0.30247778 
-0.09878225 0.0638663 0.22069 
-0.15792315 -0.067209184 0.22075774 
-0.13145603 0.04166377 0.13787428 
-0.18237658 -0.058428675 0.092343405 
-0.18453056 0.18067434 0.21531016 
-0.17691185 0.1806518 0.107618265 
0.18431075 -0.34825096 0.031072585 
0.067646965 0.112069346 0.07776459 
-0.012499215 0.043128207 0.2136297 
-0.06979304 0.07731631 0.2494626 
-0.21712776 -0.43828648 0.27771595 
-0.30054545 -0.21142744 0.18107188 
-0.22868705 0.11899967 0.10092407 
-0.038755614 -0.38456848 0.07368605 
-0.26637873 -0.24095319 0.18260503 
-0.21140109 0.114494994 0.25052643 
-0.16260122 -0.31699193 0.09078188 
-0.34966817 0.1752357 0.1882391 
0.23149188 0.16832599 0.06514668 
-0.33009374 0.12220822 0.012737953 
-0.023544593 0.18067434 0.1339741 
-0.13306099 -0.31376958 0.014675955 
-0.09859477 -0.4563567 0.18623507 
-0.19547154 -0.35500044 0.06104896 
-0.062055375 0.16073865 0.20103991 
-0.07736895 -0.38175854 0.16687913 
-0.18831287 -0.29907554 0.05202876 
-0.33129683 0.111749105 0.024326585 
-0.056584246 0.13421914 0.26570272 
-0.018133208 -0.47527453 0.13505092 
-0.2828424 -0.15830503 0.14577334 
-0.09034327 0.06721598 0.20064569 
-0.07114947 0.066401474 0.22605714 
-0.048915204 0.11928147 0.10231066 
-0.108173154 -0.30960935 0.05691905 
-0.09973747 0.09932183 0.2414554 
-0.036139864 0.16003199 0.040447243 
-0.29875588 0.043735813 0.18744504 
-0.17513694 -0.10738231 0.065188654 
-0.16302428 -0.13024671 0.23380232 
-0.0048426846 0.06008272 -0.10077778 
-0.14362167 0.16073865 0.09883412 
-0.24533644 0.07244925 0.16429392 
-0.14150241 -0.32502675 0.039088473 
-0.24870062 -0.177297 0.12361592 
-0.009712029 0.045747846 0.00828044 
-0.1803223 -0.322601 0.06599297 
0.08244001 -0.37765324 0.07316494 
-0.20751774 -0.45896703 0.11972312 
0.027187275 0.11018672 0.024502413 
-0.23277378 -0.06472167 0.13678227 
0.050083283 0.013006853 0.044173613 
-0.10847766 -0.03547843 0.038966183 
-0.029623838 0.14436163 0.024467386 
-0.35470435 0.15588886 0.16843015 
-0.17818315 -0.41871458 0.12631766 
0.062944144 0.12869297 -0.088598676 
-0.30955997 0.15075654 0.27857116 
-0.110906795 0.077194914 0.2202964 
-0.030230712 -0.069611944 0.20848341 
-0.22936787 -0.12942943 0.1673074 
-0.13323203 0.06744334 0.23150426 
0.058184672 0.058575578 0.06887934 
-0.17313819 0.044849206 0.011730336 
0.11348648 -0.09182351 0.15587471 
-0.12930644 0.16073862 0.030384596 
-0.13717154 -0.11805907 0.23872069 
-0.16471195 0.13103619 0.06669935 
0.09446687 -0.31872734 0.13941255 
0.013084578 -0.32127225 0.12138816 
0.044407632 0.18700045 -0.12619157 
0.009192305 0.18097876 0.22490068 
-0.060619157 0.18067434 0.18198873 
-0.15432802 0.03638961 0.076589756 
-0.012377577 0.1290506 0.27065572 
0.0614535 0.13187107 0.19636208 
-0.3347576 0.05704352 0.08969222 
-0.08465929 -0.4840053 0.2129294 
-0.22533172 -0.22699915 0.08672946 
-0.050362457 0.16669004 0.28475723 
-0.023749178 -0.32332543 0.076155424 
-0.03787469 0.18067434 0.09637267 
-0.22376946 -0.47276047 0.16414396 
-0.15400699 -0.202498 0.22155648 
0.31182957 0.13606836 0.045660984 
0.14183961 0.4609585 -0.24090345 
0.088532396 -0.062461104 0.049355216 
-0.1287189 -0.31217986 0.15019815 
0.2249445 0.16796145 0.061791487 
-0.15909666 -0.10357775 0.075055756 
-0.3601844 0.118194856 0.13052337 
0.08040463 -0.0065958323 0.054958627 
-0.29830956 0.054043956 0.18220511 
-0.18483414 -0.4065918 0.14461157 
0.22430025 0.12313948 0.032911226 
-0.102146424 0.16073865 0.2285779 
-0.29856297 -0.10534819 0.18330413 
-0.051183555 0.0013330163 0.0375575 
0.00023963471 0.15096745 0.2593968 
-0.12301587 -0.21935418 0.03681472 
-0.032788917 0.0033305562 0.22799647 
-0.25001532 -0.34716162 0.14040138 
-0.33240747 0.079146944 0.18682046 
-0.013432208 -0.35687327 0.08625591 
-0.23347487 -0.14567813 0.12791586 
-0.33199048 0.11371745 0.16676939 
0.008294415 -0.31366956 0.10504854 
-0.0059858817 0.12822302 0.111828566 
-0.07993715 -0.4504127 0.2521923 
0.017855272 -0.05350691 0.06958523 
-0.043856546 -0.10633555 0.14365008 
-0.25171477 -0.3562034 0.13195707 
-0.32849985 -0.037167933 0.19861166 
0.21085508 0.09868721 0.036626726 
0.060496777 0.16440797 0.17720407 
-0.21051553 0.09494259 0.07657784 
-0.02720124 -0.37719876 -0.0046578804 
-0.13638422 0.021681916 0.22014144 
-0.030661164 -0.12074408 0.1511677 
0.22061764 -0.04892785 0.066432714 
-0.121240065 -0.41706914 0.15577929 
-0.22370312 -0.41392705 0.085405946 
0.028896317 0.16907516 -0.17449068 
0.0074372846 0.13261336 0.02704508 
-0.2535731 -0.37238267 0.20790635 
-0.09863148 0.16073865 0.06260428 
-0.15479366 -0.18394624 0.22644904 
-0.19756038 -0.023986124 0.16042309 
0.0052425973 0.089701384 -0.026416844 
-0.113029964 0.18067434 0.12590785 
0.045976847 0.16499242 0.10031396 
-0.21155016 -0.40298808 0.07027733 
-0.054758716 -0.30199653 0.07335439 
-0.30269483 -0.08232505 0.17289807 
-0.06267026 -0.43410462 0.18399912 
0.010444877 0.08877504 0.23362263 
-0.12530568 -0.1382842 0.08046684 
-0.081957065 -0.32114816 0.13756827 
-0.26574773 0.013609161 0.15231325 
-0.13577875 -0.10823393 0.056731164 
-0.21648738 0.05762008 0.15039529 
-0.12234265 -0.08956939 0.07172153 
-0.17710316 -0.40815842 0.06538644 
0.16848542 0.46154347 -0.25964922 
-0.017150206 0.056641646 0.21184112 
0.0016816244 0.0906054 -0.017754 
-0.039171852 -0.30894098 0.05273647 
0.009435307 -0.26500702 0.14448394 
-0.14955232 0.059479155 0.1931106 
-0.066763155 -0.4044865 0.15216868 
-0.11127112 -0.1322418 0.21488038 
-0.35406297 0.17977425 0.1598357 
0.101735815 0.29992846 -0.1268805 
-0.06333764 0.117572844 0.08244246 
-0.021621618 -0.27510652 0.094792165 
0.1056443 0.11811024 -0.17414543 
0.15798107 0.4635787 -0.15935704 
-0.12629122 0.044806104 0.21500026 
-0.10096552 -0.13008839 0.06587728 
-0.042220343 -0.33520496 0.008800797 
-0.015110736 0.18067434 0.11696406 
-0.11383202 0.034871824 0.23066972 
0.0961914 0.11296773 -0.14253773 
0.058761623 0.09901561 -0.16026142 
-0.13387294 -0.0795772 0.23643295 
-0.11303017 0.14550662 -0.069184534 
-0.104878925 0.09732181 0.1651853 
-0.27203792 -0.0035058586 0.15807952 
-0.044286404 -0.3411755 0.15246558 
-0.33015344 0.076940894 0.1650791 
-0.114688806 -0.06656691 0.24986789 
0.037539806 0.14275102 0.099896185 
0.012465154 0.060346868 0.19061467 
-0.2029193 -0.10561978 0.083323635 
0.008308958 0.16073865 0.10776296 
-0.2548084 -0.20228182 0.21146013 
-0.22687487 -0.3900163 0.15210848 
0.07914653 0.10290368 -0.1466301 
0.1108913 -0.06584588 0.16277799 
-0.033772357 -0.32579523 0.14856544 
-0.14489971 -0.29293334 0.030157758 
-0.11906976 -0.19042894 0.21771228 
-0.30024624 0.06357035 0.0578082 
-0.17513292 -0.31539002 0.039355874 
0.063153304 0.15797582 -0.090261295 
-0.13933173 0.08111893 0.18931304 
-0.25633097 0.16086775 0.23327689 
-0.01957841 0.019555727 0.025340173 
0.1197405 0.2996706 -0.13300139 
-0.04420102 0.12762173 0.25366482 
-0.001974601 -0.23431168 0.1265456 
-0.11972047 -0.26289862 0.059855614 
-0.20698714 0.1267805 0.28247342 
-0.043505393 0.16073865 0.14027146 
-0.18785319 -0.15723741 0.2003963 
-0.009022028 -0.37580687 0.050941642 
-0.15962425 0.15079345 0.28025535 
-0.24173307 -0.3426705 0.18475276 
-0.19765498 -0.49662146 0.18435463 
0.22594632 0.1081265 0.06421953 
-0.18471609 -0.15322383 0.057557557 
0.0078195585 0.12470087 0.19243465 
-0.14803483 0.022281775 0.014305575 
0.13930564 -0.3929618 0.11825554 
0.050446007 -0.03135473 0.04457883 
-0.19296183 0.024046334 0.03769069 
-0.066469155 0.10741493 0.18711741 
-0.12298958 -0.20320135 0.22423303 
0.061772924 -0.325004 0.08418193 
-0.12870973 0.1445223 -0.05118585 
-0.21281344 -0.13540746 0.08392632 
-0.06923156 -0.477464 0.24836785 
0.12562509 0.46795154 -0.22251004 
-0.076617435 -0.4421578 0.16899088 
0.09994364 0.36842573 -0.20189197 
-0.17985582 -0.46553868 0.20558168 
0.037756365 0.14984223 -0.07015469 
-0.016932692 -0.30709207 0.14890368 
-0.3425241 0.16073869 0.09352799 
-0.062206294 0.16073883 0.25873628 
-0.07370321 -0.29933608 0.13493893 
-0.31938162 0.060625896 0.10741031 
-0.15465945 -0.21689466 0.21614195 
-0.24717127 0.18067434 0.16789132 
-0.24442673 0.08332144 0.21122964 
-0.26234412 0.061842285 0.12060522 
-0.15112995 0.019638896 0.08979131 
-0.16234854 0.034827944 0.20890713 
0.043407943 -0.10559882 0.08574249 
-0.113065064 0.10511867 0.080142334 
-0.041851826 -0.4196021 0.14144498 
0.16851832 -0.39053982 0.10306236 
0.118105926 0.39841628 -0.20593865 
-0.04416895 0.17083235 0.017398978 
-0.056421876 -0.37858707 -0.012101307 
-0.18695512 0.04114443 0.17209707 
-0.06665642 -0.4094327 0.15883867 
-0.20337763 -0.010699792 0.13604555 
-0.14720301 0.123581365 -0.03579065 
0.3661861 0.16595745 0.011578923 
-0.13525271 -0.4634876 0.12744896 
-0.23207715 0.0704388 0.15028231 
-0.009529712 0.13963339 0.23652315 
-0.16488512 -0.01995568 0.20393336 
0.08767566 0.3082552 -0.13310523 
-0.06948459 0.15547547 0.02397363 
0.105268404 0.19263968 -0.1350036 
0.18055108 -0.02491839 0.025894968 
0.061037816 0.14163792 0.19298139 
0.31089953 0.17077304 0.0020463187 
0.18934432 0.46591023 -0.2719237 
-0.15589854 -0.036456995 0.05549487 
-0.07797335 -0.20001097 0.051753737 
-0.12792304 0.18067434 0.16701144 
-0.26259208 0.0077736657 0.16634484 
-0.1879557 0.10013685 0.20097233 
-0.21511911 -0.31778455 0.13919528 
-0.11345737 -0.06261552 0.24952261 
0.12452946 0.24761952 -0.1957454 
0.087904215 -0.32359397 0.13475183 
-0.121657036 0.106480464 0.039740715 
-0.08186754 -0.36357164 0.15093952 
-0.10809977 -0.07046086 0.25105754 
-0.3062158 0.098590665 0.24298996 
0.13649659 -0.09377829 0.14082158 
-0.30944434 0.16073866 0.13803965 
-0.1255691 -0.35785115 0.002361995 
-0.1037484 0.04992741 0.1757252 
-0.3637849 0.10477456 0.13311881 
-0.07592271 -0.4471982 0.16388957 
-0.03319965 -0.2726528 0.19089703 
-0.18992564 0.0013171076 0.09152744 
-0.02582078 -0.21293142 0.21048202 
-0.30143002 0.0899278 0.24821413 
-0.14511044 0.064161845 0.19811694 
-0.024814626 -0.38644126 0.11389045 
-0.20398277 -0.3242355 0.037058633 
0.18314621 0.4956625 -0.2711457 
0.15854508 0.03568257 0.067989774 
-0.19602583 -0.3949413 0.15049668 
-0.10762602 -0.18830398 0.083064884 
0.07717015 -0.057598624 0.17818794 
-0.16084726 -0.43608746 0.08531313 
-0.11819103 -0.41115743 0.094692476 
-0.02522765 0.17294264 -0.11979011 
-0.13767259 -0.015252698 0.078258514 
-0.07658735 -0.16578372 0.21545307 
-0.19400652 0.15958418 0.26397514 
-0.15519498 0.18067434 0.1348211 
0.21708116 0.029927162 0.026822535 
-0.09280261 -0.2064451 0.20636578 
-0.13691641 -0.14101745 0.088816695 
0.008529742 0.12900941 0.10434345 
-0.16120875 -0.06026176 0.21640003 
0.012973725 0.18191105 -0.078487016 
-0.118568175 -0.09805571 0.25092334 
-0.10543349 -0.4583275 0.15847819 
-0.14210723 -0.114922546 0.052545723 
-0.17962474 0.03849257 0.057697706 
-0.10093759 -0.13944587 0.2467511 
-0.055737097 -0.17101437 0.10157945 
-0.35378468 0.179618 0.10475849 
-0.0044472506 -0.29748628 0.16915074 
-0.011886317 0.10390098 0.18450038 
-0.07204933 -0.45300472 0.051433176 
-0.29536274 0.15911949 0.22326548 
-0.18930952 -0.3566026 0.26202834 
-0.23010783 -0.29414603 0.07659718 
-0.1236731 0.10172201 0.23547214 
-0.22200555 0.16073865 0.2028393 
-0.107187964 -0.420826 0.1439935 
-0.0070210844 0.15150486 0.045520987 
0.10854661 0.121949345 -0.17331293 
0.061539434 -0.26804304 0.0793763 
-0.22816008 0.015061561 0.100674234 
-0.088548735 -0.0380041 0.046786495 
0.09998525 -0.27283907 0.081306934 
0.040718246 -0.2984519 0.16887343 
-0.30436936 0.1383723 0.031358607 
0.37451988 0.15350908 -0.027381066 
0.004990949 -0.247669 0.10983046 
0.13947476 -0.05384059 0.11111083 
-0.19990827 0.13606599 0.25970277 
-0.09428599 -0.33339936 0.006606454 
0.041052114 -0.07852677 0.066318795 
-0.059299197 -0.28656444 0.01781899 
-0.38126242 0.13720517 0.05333361 
-0.2818938 0.08600358 0.06555793 
-0.029088879 -0.4562885 0.21953127 
-0.14928931 -0.44581372 0.099104226 
0.08553355 0.35645908 -0.15407586 
0.057894755 -0.46165437 0.11497481 
-0.32493776 -0.107124485 0.2388619 
-0.35890773 0.054086722 0.104575194 
-0.14741552 -0.41443947 0.11957194 
-0.21093255 0.08690137 0.19618759 
0.2543505 0.03202805 0.05325257 
-0.26007667 -0.29047146 0.10276732 
-0.11835901 0.18067434 0.07154101 
0.019832352 -0.4321854 0.13758063 
0.10157385 0.39461043 -0.16563068 
-0.013419933 0.18262433 -0.046840686 
0.33757657 0.13979675 0.0087949075 
0.11455741 -0.025745548 0.14423828 
0.064015426 0.121298805 -0.18951637 
-0.15988046 0.16073865 0.10938139 
-0.29456687 0.10028771 0.052512802 
-0.2620173 -0.2904902 0.12849553 
-0.11554577 0.047452945 0.16759905 
0.050673615 -0.44921833 0.088529214 
-0.25849697 0.16073868 0.11442597 
-0.30486992 -0.026093379 0.16092257 
-0.30098695 0.08840153 0.20938101 
-0.30879295 0.1276654 0.025546538 
-0.36984542 0.07673192 0.12753047 
0.001624379 -0.038001575 0.07875932 
-0.1311891 -0.44250366 0.1184075 
-0.07617221 -0.28533632 0.18694173 
-0.23939958 -0.3405729 0.1104704 
-0.15126817 0.07040999 0.088298775 
-0.096179694 0.11936248 0.024275644 
-0.10037342 0.16073865 0.22987875 
0.30178723 0.17376298 0.025699643 
0.38111392 0.156339 0.024437884 
-0.00043848006 -0.27769932 0.17126153 
-0.0610706 -0.08301678 0.0945384 
-0.15976511 0.08094581 -0.020277401 
0.10979358 -0.053274807 0.16311595 
-0.17759442 -0.018056303 0.051721968 
-0.020963883 -0.22010358 0.16269478 
-0.03084031 -0.43725446 0.040907126 
-0.06836466 0.18067434 0.08719308 
-0.20516177 -0.14083236 0.07571362 
-0.11283699 -0.44223124 0.079333775 
0.14478335 0.44315436 -0.15148519 
-0.0774812 -0.4004268 0.11929506 
0.044900384 0.089915976 0.11900055 
-0.06317021 -0.42582172 0.079630785 
0.02769756 -0.4252878 0.104416065 
-0.039148055 -0.35345706 0.0009766574 
-0.2555006 0.09608003 0.24402341 
-0.16333884 -0.31135675 0.048533037 
-0.012829179 -0.46219575 0.10791678 
-0.2924398 -0.17910752 0.14418551 
-0.32575423 0.18067433 0.09718161 
-0.051358227 0.16073865 0.05015254 
0.054051254 0.101661675 0.19038565 
0.005689168 0.14809375 -0.028134832 
-0.083292805 -0.08897811 0.24886218 
-0.20552546 -0.297806 0.16155097 
0.16902371 -0.10120798 0.046699747 
-0.0078018648 -0.19997633 0.081656195 
0.0047078268 -0.27751258 0.09389219 
-0.058501188 0.18067434 0.04016699 
0.07158039 -0.32788214 0.0797317 
-0.31279033 -0.1450783 0.23772249 
-0.01164683 0.15433952 0.2670462 
-0.17937192 0.07232429 0.04614577 
-0.20070826 -0.051040314 0.08080413 
-0.16921523 0.09806348 0.01996816 
-0.24703118 0.06105513 0.19758603 
-0.11032276 0.05067152 0.27513117 
-0.22347939 -0.24989496 0.18438172 
0.071486466 0.13838013 -0.09534245 
0.25014764 0.17245153 0.024201706 
-0.1595632 0.09778131 -0.022195594 
0.14902005 0.35907912 -0.17466289 
-0.048621114 -0.15080002 0.20301284 
-0.03708586 -0.27015164 0.086906336 
0.3004745 0.17335322 0.035357762 
-0.35684758 0.16594301 0.045302834 
-0.17907266 -0.35862827 0.16943607 
-0.19864628 -0.1910426 0.20804861 
-0.10653307 -0.06518857 0.25057042 
0.0106338095 0.06613766 -0.10826964 
-0.08879192 -0.34670338 0.16121402 
-0.22106211 -0.30864063 0.08464676 
-0.08433608 -0.19176002 0.23069611 
0.034153834 0.104038164 0.088910185 
-0.11302874 -0.25059405 0.078551315 
-0.053657044 -0.021234933 0.052424397 
-0.2042547 -0.0011265915 0.12310577 
-0.018819219 -0.36367527 0.035617143 
-0.13476443 -0.36253175 0.07766374 
-0.02940799 -0.45996255 0.18500747 
0.110456556 -0.0006343198 0.11906822 
-0.07153092 -0.36881635 0.12456383 
-0.35438612 0.12979205 0.031354226 
-0.2225995 0.16073865 0.19873226 
0.25612837 0.17152147 0.03334798 
-0.24668366 0.0830869 0.14543799 
0.01929957 -0.44578335 0.0954024 
0.13651183 -0.01976471 0.049595494 
-0.20784073 -0.34021807 0.069512635 
-0.257178 0.18067434 0.2051322 
-0.016333435 -0.047622573 0.10879996 
0.091434084 -0.1303086 0.057403427 
-0.12061034 0.05042778 0.21802182 
-0.09110338 -0.44039816 0.1091858 
0.062194373 0.17447324 -0.10182135 
-0.3344303 0.045716286 0.1165874 
-0.27150047 0.18067437 0.12211476 
-0.22579892 -0.008118103 0.15566911 
0.18464477 0.49380332 -0.2991365 
-0.035079353 -0.3229912 0.060071487 
-0.0020511462 0.0945908 0.25602448 
-0.07225111 -0.45780027 0.15118936 
-0.11905439 0.16073865 0.09937124 
-0.05942336 -0.10745776 0.2377475 
0.07831291 0.27284318 -0.21158384 
-0.03195438 -0.29794884 0.17131263 
-0.22098063 -0.4110027 0.13736798 
-0.07833524 0.16073865 0.06049497 
0.11300267 0.14139262 -0.16882372 
0.1355369 0.0022050939 0.06865011 
-0.20614329 -0.1614688 0.21360262 
-0.123859346 -0.41171494 0.07395173 
-0.21308674 -0.32001656 0.12053478 
0.009374331 -0.4457855 0.17220408 
-0.09975049 0.16073865 0.24403788 
-0.13598181 -0.37583232 0.08274753 
-0.32727736 0.14801717 0.027187627 
0.27078468 0.17079172 0.019320523 
-0.07082382 -0.27962372 0.19104429 
-0.2088195 0.033898037 0.05350986 
-0.20751558 0.08478813 0.26869422 
0.052143153 0.1295156 0.04667822 
-0.30135244 0.08868914 0.24187866 
0.1028482 0.25949243 -0.11939284 
0.040593013 0.16108966 0.16993935 
-0.14472397 -0.022901056 0.2311967 
-0.23080043 -0.09176306 0.12944913 
-0.26477078 -0.004420075 0.20710143 
0.2600983 0.050139334 0.05625078 
-0.063359745 0.18111402 0.2711841 
-0.35520715 0.11852599 0.14533551 
-0.04900892 0.16073865 0.05312676 
-0.29329848 -0.10057723 0.18648882 
0.012431701 -0.21521784 0.1687074 
-0.22450225 0.043932494 0.09952275 
-0.09113885 -0.18004544 0.06254457 
-0.10365859 -0.023479301 0.24202669 
-0.090048894 -0.1302566 0.06630982 
0.07973705 0.33988008 -0.1953689 
-0.099297985 -0.23837335 0.021516947 
-0.10971681 0.15915908 -0.05868965 
-0.17395897 -0.16256021 0.20150724 
0.04319484 0.18104497 0.15453713 
-0.18499766 -0.41641688 0.25849673 
-0.13122316 -0.21446657 0.14214762 
-0.09758686 -0.0056504654 -0.0074872873 
0.10321239 -0.1332378 0.05510876 
-0.114175454 0.07808409 -0.07504478 
-0.32992652 0.15535855 0.044009987 
-0.07290454 0.16073865 0.14474748 
-0.15207666 -0.13043536 0.23355214 
-0.1272102 -0.40285757 0.23387323 
-0.090109736 -0.002960828 0.23818687 
0.3767278 0.1471795 0.009320544 
-0.2617246 -0.16426454 0.23438707 
-0.07684398 0.08342312 0.22680439 
-0.036779493 -0.41507453 0.06334228 
-0.028402576 -0.28379458 0.088888325 
-0.06332977 -0.43563837 0.16126929 
0.036661953 0.1799212 -0.108143784 
-0.05168619 0.11703257 0.12005573 
-0.1270366 -0.35654464 0.25236762 
-0.17412302 -0.28139523 0.18382894 
0.050604004 0.18095519 0.1053541 
-0.1018172 -0.36887002 0.2282263 
0.006313108 0.12346409 0.19908245 
-0.06301981 0.0698463 -0.105545245 
-0.18837935 -0.15972924 0.2214595 
-0.3782706 0.14387177 0.10734319 
-0.067375086 -0.18566182 0.23211128 
-0.2599937 0.15091416 0.24588852 
-0.27482447 -0.06582181 0.17813425 
-0.18089183 -0.356477 0.09624459 
-0.04791157 -0.07267998 0.22348976 
-0.035197716 -0.14127678 0.15777975 
-0.35689372 0.15985617 0.081633136 
-0.14658353 -0.08443148 0.23323813 
-0.30105025 -0.21106984 0.17772551 
0.048783343 0.17508036 -0.09777263 
-0.220505 -0.42493236 0.13095075 
-0.024912942 -0.18725748 0.06623366 
-0.08878776 0.18067434 0.0729341 
-0.15817128 0.08719029 -0.024376567 
-0.17688142 -0.309652 0.16372533 
-0.22169979 -0.20378691 0.10591035 
-0.33327696 0.05430248 0.08317105 
-0.16363421 -0.16856498 0.2014335 
-0.30512893 0.16073865 0.11894736 
-0.15016225 -0.24092902 0.04910778 
-0.13753565 0.056121193 0.27368 
-0.0035143853 -0.056647785 0.114172645 
-0.2552532 0.18067434 0.16649024 
-0.33184993 -0.08666764 0.21607764 
-0.33900318 0.12511985 0.06753927 
0.14807151 -0.37985146 0.033981204 
-0.2071065 -0.317068 0.13137741 
-0.06601733 0.18156305 -0.026475426 
0.09210282 0.25027865 -0.21157075 
-0.07079893 0.18067434 0.1855657 
-0.04367511 -0.30702773 0.04997947 
-0.24777383 -0.4490482 0.20729215 
-0.08506125 0.18067434 0.13981967 
-0.041775994 -0.2833338 0.1923182 
-0.0989237 -0.004315723 0.14071707 
0.20027095 0.0048189606 0.026522176 
0.081096716 -0.13801238 0.07339735 
0.09581279 -0.06746627 0.17097786 
-0.18263897 -0.4049233 0.06551938 
-0.12912081 -0.2680784 0.10623481 
-0.15917432 0.0713235 -0.01825361 
-0.10996384 -0.42103228 0.14176907 
-0.2185095 0.17577781 0.26084316 
-0.2779871 -0.2597772 0.13186917 
-0.04487627 0.16350232 0.28334582 
-0.023939712 0.17423199 0.26990056 
-0.09865286 0.063153476 0.25486735 
-0.10882321 -0.46281278 0.23499918 
-0.09924861 -0.025135215 0.2039205 
-0.13668668 0.18067434 0.25336 
-0.26900738 0.18067434 0.16767776 
-0.0657874 0.17902598 -0.0580516 
0.18994072 -0.033033445 0.1222441 
0.031995453 0.1384469 0.23385583 
-0.17332615 -0.13831103 0.113695204 
-0.13134266 -0.15567118 0.050621282 
-0.0015194978 -0.046823733 0.18844384 
-0.12585825 -0.36689538 0.024816869 
0.19468 0.072623044 0.079058066 
0.18760124 -0.3542724 0.100042365 
-0.06746403 -0.14471227 0.21454403 
0.11021091 0.122995295 -0.16260454 
-0.19649589 0.08157243 0.04558981 
0.05757232 0.1060704 0.06345171 
-0.27348223 0.10201244 0.06202007 
-0.13143727 -0.3103921 0.06363394 
0.11497925 -0.10223967 0.15151045 
-0.12079958 0.015536406 0.13250266 
-0.0490596 -0.21664561 0.09119255 
-0.16985755 -0.47420803 0.23387057 
-0.31158617 0.16073865 0.08421826 
-0.07273778 -0.027981771 0.1772394 
-0.0005230333 0.12295932 0.18610881 
-0.123595744 -0.010417866 0.23252092 
-0.16165388 -0.43360013 0.2422967 
-0.32378826 0.10041441 0.2005066 
-0.10825538 0.16065155 0.27961117 
-0.1469581 -0.32079244 0.029274778 
-0.13948098 -0.28184447 0.09642976 
-0.02326318 0.11720623 0.19061264 
-0.23504993 0.18065318 0.11962236 
-0.3025581 0.050365068 0.10037365 
-0.38047376 0.16162947 0.053371206 
-0.32765087 0.06529725 0.061961528 
-0.1868038 -0.15077263 0.1453048 
-0.059580415 -0.20083556 0.22661607 
0.11407808 0.14811495 -0.17898785 
-0.054177087 -0.26491094 0.07354414 
-0.103464395 -0.38664305 0.013150695 
-0.094705 -0.43316162 0.13594583 
-0.23312114 -0.42667982 0.22841048 
-0.014964405 -0.3203959 0.1041974 
0.04385596 0.17001803 -0.087686576 
-0.044362094 0.13875754 0.28659648 
-0.2053842 -0.12513173 0.07835295 
0.11247678 0.4431596 -0.18256548 
-0.10816531 0.09812446 0.14896251 
-0.21931893 -0.42850056 0.090414904 
-0.32575598 0.041010704 0.101748 
-0.14018852 -0.31852347 0.18421337 
0.127871 -0.06683604 0.05371896 
-0.09762405 -0.41503048 0.23605709 
-0.26810512 0.1083072 0.2378495 
-0.08336831 -0.031064989 0.18651313 
0.16962996 -0.010293052 0.12302037 
-0.057312135 -0.41975692 0.1482243 
0.18971765 0.44346425 -0.21608937 
-0.087638445 -0.42501324 0.20399337 
0.013025396 -0.026281502 0.20245866 
-0.3627707 0.08906027 0.14555933 
-0.005393095 0.002539202 0.043244027 
0.31901148 0.13480175 0.0010764686 
-0.11245112 -0.3840285 0.02315573 
-0.014287851 -0.010720006 0.050086368 
-0.28965375 0.049088836 0.12779284 
-0.18529004 0.18067434 0.18330039 
0.064651266 0.14472713 0.07084874 
-0.33430234 0.1345103 0.027936347 
0.11616612 -0.4324433 0.10813888 
0.029773954 0.18067431 0.12342785 
0.30711105 0.1694202 0.0015721451 
0.20370218 -0.02942106 0.11710471 
-0.034080327 -0.11555526 0.20244916 
-0.007650086 0.16073866 0.1269544 
-0.1229914 0.04728511 -0.039406437 
0.114825346 -0.07353832 0.047323145 
-0.07646188 -0.37410325 0.021742797 
-0.27315572 0.15481204 0.0668456 
-0.016103959 0.18067434 0.05433959 
-0.07138407 -0.4071094 0.11272015 
0.05341449 -0.32551885 0.095584854 
-0.11572537 -0.36498708 0.039227698 
-0.16737379 -0.15205044 0.124870054 
-0.13786875 -0.3640257 0.25229257 
0.20281741 0.0836955 0.07504078 
-0.100259945 0.11193666 0.0519464 
0.18804717 0.44484246 -0.20865828 
-0.34133893 0.042637464 0.09162626 
-0.067560725 -0.2985457 0.12570654 
-0.3139939 -0.09423663 0.17611039 
-0.2972171 0.07590447 0.08586612 
-0.1741105 -0.3259189 0.046014596 
0.26303697 0.083841614 0.024980407 
-0.2199048 0.054450873 0.087556995 
-0.13636759 0.16073865 0.18684147 
0.032870553 -0.08742933 0.13963412 
-0.14484176 -0.26741198 0.033135854 
0.22451265 0.009575633 0.10181661 
-0.07294386 -0.42186794 0.07382012 
-0.066612355 -0.3909315 -0.014562367 
-0.042907402 -0.095671944 0.12315894 
-0.3365122 0.091725476 0.047477625 
-0.01866832 -0.42824152 0.08648171 
-0.0022552891 0.16072942 0.058142953 
-0.25593227 -0.26461858 0.16515516 
0.09760087 -0.13241485 0.05612792 
-0.008890972 -0.384344 0.078903496 
-0.111600235 0.019555742 0.013021431 
-0.096420065 -0.44393888 0.16230865 
-0.26912367 -0.27257717 0.14338371 
-0.12115179 -0.27794373 0.015350073 
-0.14217192 -0.17602673 0.120889135 
-0.13351668 0.038325775 0.13293234 
-0.08209313 -0.38629958 -0.004983875 
0.11962422 -0.026597599 0.13121033 
-0.0096606305 -0.17618795 0.13896364 
-0.05135296 -0.098758064 0.13246 
-0.10222356 0.059261654 0.19124724 
-0.2738187 0.0719052 0.18107128 
-0.18335253 -0.06195079 0.19743523 
-0.38234398 0.106771 0.070309624 
0.060455453 -0.12121972 0.07831127 
-0.10681402 -0.0015183443 8.1581435e-05 
-0.21504922 0.06370026 0.17502335 
-0.036999356 -0.24049391 0.18470073 
-0.14014496 -0.33522698 0.09840016 
0.0061280844 0.17335081 0.050657954 
-0.0025813791 0.17906469 0.25207576 
-0.064946435 -0.46023586 0.1406635 
-0.19226341 -0.44213963 0.12073986 
0.00068999804 -0.2594712 0.10042887 
-0.19306935 0.18067434 0.24668396 
0.001411992 0.16073865 0.20909356 
-0.2531245 -0.13706292 0.18515283 
0.22372273 0.1262941 0.032768182 
-0.21803965 -0.10006678 0.21240354 
0.0076048714 0.15487805 0.0506468 
0.045804348 0.15859188 0.09852373 
-0.2137257 -0.17844121 0.08937411 
-0.31722626 0.07228381 0.049236525 
-0.092283405 -0.4551138 0.07366415 
-0.065332435 0.18067436 0.034210682 
-0.16385296 -0.33202472 0.23907693 
0.10709131 -0.15371238 0.10917311 
-0.030095179 -0.43028933 0.16320837 
-0.10138232 -0.41273728 0.09829128 
-0.08687337 -0.17810033 0.2349488 
-0.026651913 -0.280095 0.18924583 
0.039941374 0.19658947 -0.16135444 
-0.25591156 0.096171096 0.090238854 
-0.250203 -0.2239657 0.1974234 
-0.27942094 -0.031375416 0.23773378 
-0.2705686 -0.10446481 0.25672087 
-0.14665309 0.1194866 -0.03815702 
0.024510898 0.17632753 -0.15812159 
0.11471453 -0.37013373 0.1201977 
-0.08966707 0.13041493 -0.10100061 
0.025493562 -0.08352699 0.13259529 
-0.17679337 0.12341835 0.066093996 
-0.015091358 -0.34979913 0.08357585 
-0.0294052 -0.022463286 0.059555765 
-0.20582248 -0.1255557 0.22166099 
0.20830694 0.01375179 0.0285755 
-0.087847784 0.04947509 0.21812047 
-0.20210263 -0.3574348 0.16961704 
-0.32034552 0.123896 0.21093222 
-0.06629522 -0.27089506 0.05879756 
0.21516891 0.4834217 -0.23540442 
-0.093131095 0.16073865 0.098121166 
-0.10019941 0.095582195 0.20264515 
0.19368723 -0.37943614 0.0640176 
-0.03571848 -0.24016213 0.18413873 
0.036243703 -0.0958858 0.12934026 
-0.053244457 0.18067434 0.071817264 
-0.13023338 0.16073863 0.06025692 
-0.21638393 -0.09619229 0.098509654 
0.09574244 -0.04238205 0.17369926 
0.01781925 -0.2480993 0.12266136 
-0.097679 -0.15885207 0.241739 
-0.045185003 0.07550796 -0.12018453 
-0.14336355 -0.3996369 0.15558623 
-0.26408023 0.08536477 0.19829659 
-0.3685415 0.11296433 0.10856898 
0.05407792 0.1185151 0.0479061 
-0.06574975 -0.18736787 0.19964294 
-0.037192773 -0.18094282 0.22117604 
0.005478436 0.12823142 0.083950795 
-0.20381789 -0.17764677 0.06842331 
-0.18832886 -0.037468847 0.10164834 
-0.13240032 -0.070827946 0.070112385 
-0.36326054 0.124120615 0.13678828 
-0.06537338 0.037798062 -0.04521846 
-0.27381077 -0.26035586 0.109186165 
0.038883995 0.15470709 0.21954344 
-0.13329801 -0.09675914 0.071828604 
-0.03548562 -0.14212033 0.21760833 
-0.1515724 -0.29213274 0.07926665 
0.00013959732 -0.01731386 0.0531084 
-0.3669255 0.1363501 0.12347507 
0.14657226 0.44085553 -0.23268136 
0.17405182 0.010937156 0.026605671 
-0.08030342 -0.32185957 0.053447768 
-0.05673557 0.18067434 0.17113647 
-0.06436178 -0.3395754 0.116433136 
-0.19628805 -0.1547192 0.1735828 
0.22466888 0.14837505 0.023393355 
0.3179363 0.17040056 -0.0074043963 
-0.09687681 -0.15106206 0.22525238 
-0.12712501 -0.471928 0.14591658 
-0.10979468 -0.41531798 0.0032524322 
-0.22551867 -0.4145391 0.13809508 
-0.18821168 0.10745338 0.035802275 
-0.049042173 -0.28844532 0.18847187 
-0.09412426 0.17580344 0.29069653 
-0.030677391 0.07762215 -0.12815976 
-0.22571228 0.040383723 0.11966109 
-0.20525996 -0.27810517 0.17438473 
0.1138754 -0.013322819 0.08847813 
-0.1687542 -0.28405902 0.18388577 
-0.041841846 0.18067434 0.11118053 
-0.02802496 0.17826907 0.031030118 
-0.071970046 -0.05389998 0.12473099 
-0.13285111 -0.35616854 0.2561367 
-0.13546775 -0.018889317 0.22935541 
-0.24110809 -0.35037845 0.20735662 
0.0764203 0.32984427 -0.15077738 
-0.109061845 0.1605653 0.297195 
-0.20589694 -0.3296491 0.06470404 
-0.24330327 -0.42626545 0.22958875 
-0.31553894 0.14793046 0.046382587 
-0.10825067 -0.13274224 0.21233404 
-0.33180928 -0.07186426 0.19935714 
-0.038862098 -0.1694106 0.07179609 
-0.16739829 -0.16873856 0.16162847 
-0.2326146 0.11183426 0.22708604 
0.21911398 0.038489856 0.02559366 
-0.1025835 -0.41007197 0.06317621 
-0.08164552 0.16073865 0.111010104 
-0.017820457 0.12481707 0.12353784 
-0.17710477 0.043024544 0.23988095 
-0.054610405 0.13424699 0.26161587 
-0.1151579 0.18108062 0.28199345 
0.034730896 0.16962565 0.1920806 
-0.34715194 0.07143031 0.08991387 
0.2344729 -0.023099327 0.06462986 
-0.15802532 -0.31711254 0.20284702 
-0.07018076 -0.20246877 0.2275317 
-0.23521787 -0.042896166 0.14137697 
0.048251525 0.07874072 0.07840571 
-0.13337052 0.18067434 0.08957559 
-0.12374386 -0.015264347 0.033561733 
0.3030312 0.17294452 0.010227075 
-0.020870546 -0.040949196 0.0979514 
-0.064990714 -0.06596205 0.07880057 
-0.13409331 0.14503884 -0.04326959 
-0.020326223 -0.28233775 0.09337388 
-0.18838412 -0.21410006 0.047658306 
-0.049587954 0.11745609 0.12101435 
-0.02685673 -0.08474138 0.15114993 
-0.12797755 -0.44778344 0.2727965 
-0.13696207 0.07273629 -0.048129242 
-0.1270348 -0.30558342 0.17343827 
-0.0902797 -0.14017385 0.07308625 
-0.010373657 -0.17903209 0.15391889 
-0.15110633 -0.29858837 0.18081228 
-0.039434917 -0.10861877 0.14480944 
-0.22636 -0.10234983 0.15373076 
0.020768858 0.09195001 0.22305942 
0.07490871 0.14198916 0.10095308 
-0.18199338 -0.020966243 0.086895965 
0.14413512 0.4813269 -0.17633456 
-0.30548626 -0.03711817 0.1645055 
-0.24065854 -0.40958956 0.23823406 
-0.013110775 0.12449194 0.1401436 
0.14546409 0.48364693 -0.26505974 
0.1409678 0.40711257 -0.2145515 
-0.17756194 -0.41478124 0.27667934 
0.2124314 0.13802066 0.044871945 
0.18153022 0.058041297 0.0796836 
-0.1348795 0.096907236 0.20156568 
-0.30369532 0.12891138 0.05438359 
-0.18927361 0.02443857 0.17719474 
-0.28988543 0.1203374 0.056480296 
-0.005259963 0.02210365 0.21572956 
-0.026026484 -0.2687991 0.09302398 
0.01502765 0.07467572 0.050307173 
0.06513601 0.108136155 -0.09394439 
0.14137608 0.29946676 -0.18531331 
0.11435852 0.4362957 -0.1889427 
-0.1388559 0.10862047 0.28327712 
-0.09998361 0.18067434 0.20630746 
-0.24152844 0.046242315 0.20790285 
-0.2514531 -0.29342535 0.091186225 
0.17206612 -0.020321673 0.025233954 
0.16910492 -0.11879945 0.11813361 
-0.20039171 -0.22946234 0.061714448 
-0.3205614 0.17388077 0.22857523 
-0.21489201 -0.24675207 0.19188517 
-0.070168555 -0.23755968 0.040587522 
-0.27278462 0.15019985 0.2251705 
-0.067993164 0.08935204 0.22059318 
0.038372997 0.26441488 -0.16850697 
0.02872747 0.18067428 0.1416242 
-0.20137832 0.0050762687 0.19063067 
-0.22637095 -0.38193488 0.252014 
-0.03608852 -0.20093857 0.11903037 
-0.1598883 0.16073865 0.13755043 
-0.056736887 -0.42635527 0.08009133 
-0.36113244 0.06620842 0.13257381 
-0.109187566 -0.39517742 0.0049952692 
0.07185629 0.11823313 0.17538895 
0.18494108 0.07144737 0.06713119 
-0.036190964 -0.4368184 0.12783946 
0.19994487 0.4771708 -0.28857765 
-0.21662883 0.06820123 0.20779434 
-0.011079984 -0.39251867 0.031068876 
-0.19133955 -0.031347618 0.10660492 
-0.28126055 0.06624997 0.06088436 
0.12779374 -0.14813794 0.057326935 
-0.016694061 -0.034377858 0.092194214 
-0.14993727 -0.330024 0.23082739 
-0.3420348 0.08871902 0.15368497 
-0.017358057 0.06435306 -0.014801555 
-0.04738661 -0.40843302 0.12601016 
-0.11271838 0.034499884 0.23111159 
0.109701365 -0.017856466 0.146858 
-0.18993443 -0.20430839 0.044815477 
-0.26726204 0.087190084 0.19843002 
-0.19694678 0.05589544 0.083378814 
-0.003337884 -0.2308912 0.15110426 
-0.28048187 -0.08956664 0.25970328 
-0.030304754 0.050144862 -0.040294614 
-0.20698066 -0.35943818 0.16860263 
0.11570923 0.18897001 -0.16887447 
-0.14045925 -0.49249515 0.18296537 
0.15782884 0.43371418 -0.2307897 
-0.12830769 0.121885434 0.0070409966 
-0.15198581 0.034073066 0.08405138 
-0.072195284 0.0036976454 0.025370164 
-0.13490456 -0.18026128 0.04344551 
-0.093873896 -0.44204018 0.022021785 
-0.22060171 0.15609027 0.10480018 
0.22226186 0.1082176 0.062817 
0.06422481 0.17113414 0.15789922 
-0.15561864 -0.40792045 0.27747393 
0.13739234 -0.04763469 0.10838807 
-0.012783391 0.06791956 0.20411359 
-0.3187939 0.18067427 0.10258806 
0.18681364 -0.37247512 0.04367342 
-0.12952591 -0.26070794 0.025648313 
-0.027486382 0.17051661 -0.006332451 
0.18094148 -0.30926588 0.07948193 
-0.017528508 -0.32027277 0.11415397 
-0.23046692 0.16068155 0.23693913 
-0.065076955 0.10925132 0.24005665 
-0.17179741 0.07539865 0.029420134 
-0.3079666 0.020283284 0.17255887 
-0.30137873 0.06964627 0.09012369 
0.18033178 0.47859815 -0.2008431 
-0.3284221 0.14282152 0.17885056 
0.158192 -0.4029672 0.10350974 
-0.005666279 -0.20075077 0.1263191 
-0.12552641 -0.1043226 0.061914746 
-0.060630582 -0.2631187 0.060577378 
0.16600229 0.040595245 0.058282293 
-0.03746271 -0.2645518 0.07291684 
-0.14811254 0.16073865 0.13441151 
0.17745651 0.057818536 0.06985021 
-0.051755954 -0.23186722 0.08225203 
-0.26528364 -0.17782405 0.22974192 
0.19667204 -0.0948531 0.09108309 
-0.110914916 0.16073865 0.20333557 
-0.19172087 -0.40933675 0.14241874 
-0.24819864 -0.4174521 0.121957175 
-0.31247923 0.057933792 0.081931524 
-0.30928606 0.07863803 0.18735895 
-0.19696769 0.13738357 0.052072488 
-0.10596572 -0.42560792 0.24351424 
-0.39319146 0.12227008 0.045974407 
0.123727076 -0.3410793 0.118011005 
-0.103026494 0.09452462 0.20769079 
-0.080925815 0.16073866 0.15991756 
-0.1334532 -0.12835756 0.23363021 
-0.30559576 0.15030167 0.24863923 
-0.043722127 -0.42037657 0.1380089 
-0.07786444 -0.14696683 0.21998328 
0.005448546 -0.4672562 0.10909873 
-0.2534621 0.06693286 0.13096541 
-0.22858042 0.022941671 0.109071724 
-0.2671414 -0.20132095 0.11367902 
-0.045188315 -0.41625053 0.17634381 
-0.05121142 -0.29537657 0.07855248 
0.031767644 0.17271219 -0.17670381 
-0.2075358 0.12183671 0.06793179 
0.19169141 -0.35019982 0.09373796 
0.14821562 -0.30125847 0.050004143 
0.02132924 0.07120291 0.03514542 
0.18658105 -0.36901537 0.041425277 
-0.12373538 -0.45762944 0.12905076 
-0.07156771 -0.44001973 0.2255673 
-0.20813784 -0.12965348 0.20429155 
0.14817572 -0.15191744 0.12168672 
-0.10398141 0.1809505 0.018021567 
0.060120974 -0.12519477 0.095749125 
0.00039645794 -0.43207076 0.122388996 
-0.3818659 0.099184856 0.102719694 
-0.18471208 0.017293973 0.034521863 
-0.07978232 -0.06207301 0.105936386 
0.017879337 0.12608062 0.09163283 
0.018877868 0.10467595 0.17305325 
0.24372138 0.048215672 0.028651351 
-0.33182615 0.09589101 0.18359652 
-0.230371 0.12668963 0.11034441 
-0.20861873 -0.23851132 0.06568376 
0.10679188 -0.2640327 0.11382018 
0.07955742 0.16753642 -0.10442957 
-0.2200021 -0.24439405 0.19058052 
-0.33461156 0.14739878 0.050422907 
-0.016110795 -0.15387367 0.12612402 
-0.09569785 -0.34561718 0.045316644 
-0.10468007 0.106084764 0.098763555 
-0.12807138 -0.38749698 0.052350048 
-0.07128157 -0.4013456 0.025965482 
0.11832634 -0.034683004 0.076479785 
0.0075852084 -0.23174244 0.09732925 
0.09727625 0.21590135 -0.20413229 
0.27149388 0.13046768 0.006447136 
-0.092081614 0.03994983 0.1957404 
-0.2610093 0.05774691 0.12854853 
-0.0403671 -0.4470189 0.11076811 
0.11077741 0.20699859 -0.1463086 
-0.23083405 -0.20342678 0.19577436 
-0.18389979 0.050708853 0.17356308 
-0.11233616 -0.3010688 0.15233271 
0.06300094 -0.3980532 0.10509672 
-0.22092392 0.06636468 0.19784349 
-0.36642283 0.1259074 0.12184471 
-0.16656645 -0.4722553 0.23354864 
0.026003638 0.16073865 0.14237732 
-0.0626274 -0.4394429 0.18950409 
-0.17974702 -0.08698927 0.23204489 
-0.12626617 -0.4300851 0.078253984 
0.15512447 -0.04400987 0.03521352 
-0.028201286 -0.3226319 0.04985447 
-0.019674454 0.15775907 0.042681307 
-0.26255426 0.16073868 0.11527685 
-0.24390054 0.14944455 0.25755045 
-0.24221167 0.18067434 0.14560653 
-0.25285476 0.06049764 0.16091734 
-0.04399239 0.121712595 0.09186364 
-0.16745776 0.09840147 0.015417918 
-0.21147221 0.07901962 0.21956202 
-0.27508992 0.056920197 0.15444958 
-0.1508994 0.06698038 0.0888869 
-0.044919923 -0.20662145 0.10139209 
0.03051932 -0.43932804 0.0897931 
-0.30115345 0.12631692 0.23987393 
0.31864282 0.15175521 0.05977452 
0.069892414 0.17353308 -0.1968717 
0.093323015 -0.43862802 0.1190026 
-0.10923432 -0.41681653 0.22092919 
-0.020113006 0.104220346 0.19060527 
0.045036495 0.1731874 0.16335483 
-0.029194029 -0.038872954 0.080586664 
-0.24619868 -0.3616489 0.10329048 
-0.067960575 -0.0553718 0.068315946 
-0.06896715 -0.25103962 0.06045197 
0.0076372796 -0.26118514 0.16146114 
0.14787368 -0.07872248 0.13262475 
-0.11849157 -0.06974752 0.07220523 
-0.2564083 0.107620105 0.07501633 
-0.017952783 0.06980327 0.0017768132 
-0.040549193 -0.091466404 0.20436053 
-0.22799279 0.08463957 0.2560649 
0.035282973 0.16633128 -0.17973717 
-0.23593953 -0.33114022 0.12720497 
0.01216675 0.12709701 0.16122508 
-0.24362813 0.12740862 0.09260273 
-0.0733333 -0.4583853 0.15885435 
-0.18167527 -0.36796385 0.16509272 
0.2507655 0.025355034 0.048500277 
-0.2970667 -0.19403389 0.20753418 
0.2505221 0.047685135 0.07492774 
-0.0052916217 0.09981426 -6.0423496e-05 
-0.043896876 -0.3525279 0.1433551 
-0.32067868 -0.015878279 0.20266196 
0.19312437 -0.32436663 0.053048827 
-0.110302165 0.14570783 -0.072052084 
0.08437555 0.027299643 0.074064136 
-0.010359143 -0.33408275 0.108399466 
-0.1941609 -0.27403325 0.072589315 
-0.10691177 -0.40277883 0.11296204 
-0.04505236 -0.40028372 -0.009072199 
-0.07131779 0.11037874 0.24106547 
0.07854584 0.13446757 -0.10257615 
-0.11799091 -0.41986752 0.12061315 
-0.07902386 0.18000732 -0.012396745 
-0.3318901 0.18067434 0.1194443 
0.06286403 0.18816431 -0.11763369 
-0.15056245 -0.42580435 0.120387524 
-0.14646193 0.07846891 0.09524477 
0.07817368 -0.41316044 0.06399897 
-0.20567065 0.18117116 0.11695209 
-0.11692954 -0.45890582 0.26627463 
-0.10466352 0.16069312 0.27712402 
0.016205853 0.17690358 -0.07029912 
-0.15644795 -0.35989073 0.16958225 
-0.06265138 -0.38566443 0.013470866 
-0.08524566 0.18113016 0.016933527 
0.016430661 -0.47523117 0.13500269 
-0.12216331 -0.19617587 0.10550589 
-0.046319537 -0.23207107 0.21775149 
-0.22682442 -0.009012494 0.10298755 
0.18156219 -0.31181785 0.06387455 
-0.067793764 0.040037297 -0.05677525 
-0.030360691 -0.32155564 0.14332843 
-0.34248668 0.1607387 0.12054784 
-0.23127714 -0.06885852 0.18300997 
0.08045463 0.28529802 -0.21116966 
-0.08030007 -0.0332055 0.04917693 
-0.06407428 -0.25993013 0.02208955 
0.041274812 0.019141968 0.1962346 
0.08439567 0.10505349 -0.14123143 
0.052385356 -0.0275508 0.043890346 
-0.21126926 0.15084714 0.27660298 
-0.10937665 0.121742435 -0.08521907 
-0.17947365 -0.3636753 0.16715331 
-0.24626164 -0.39044228 0.2372236 
-0.16110277 -0.066676125 0.2179638 
0.020297203 -0.30703977 0.09491087 
-0.38465577 0.14406593 0.08003445 
0.014589849 0.119413115 -0.17122446 
0.037352674 0.16211429 0.1837191 
-0.3305524 0.04751526 0.12780306 
-0.3116844 0.1052199 0.2210638 
0.117692165 0.2750027 -0.12655522 
-0.03292914 0.18101186 0.25779128 
-0.093653634 -0.38494518 0.013821177 
-0.020608224 -0.30815557 0.12984711 
0.10346262 -0.293209 0.14368492 
0.13363098 0.2689396 -0.18859707 
-0.26430625 0.14564876 0.24360971 
-0.17647833 0.034641553 0.020562617 
-0.23494148 -0.29106367 0.16001438 
0.027796993 0.068892606 0.055502024 
-0.21589398 -0.43520874 0.22478841 
-0.27678317 0.1330234 0.061278936 
-0.15647742 -0.1890609 0.04058962 
0.009330437 0.13014597 0.122870974 
-0.33563328 0.14958864 0.16572796 
-0.082382545 -0.2677541 0.20298582 
-0.16625738 -0.034072507 0.06798059 
-0.35918248 0.14832062 0.13323522 
0.011367023 0.16073868 0.17570356 
-0.004293312 0.11248045 0.021097118 
0.18679065 -0.10212827 0.102318585 
-0.13740881 -0.36497712 0.08922194 
-0.049624138 -0.11487004 0.087470986 
-0.18622984 -0.0003505371 0.1793606 
-0.018172441 0.1145016 0.028527115 
0.019127922 -0.07915355 0.12410174 
-0.082358934 -0.3927578 0.17273356 
-0.11939534 -0.47285402 0.2568117 
0.02797842 -0.46775734 0.10688995 
-0.14682136 0.059369422 0.27258784 
-0.16561903 0.13847205 0.08129825 
-0.06202327 0.18223263 -0.025518486 
-0.19673286 -0.36032018 0.16828425 
-0.09128891 -0.14591733 0.2106323 
-0.026143841 0.12013616 0.027064053 
-0.039976973 -0.14783925 0.18870415 
0.03150748 0.081885375 0.1576854 
-0.07876073 0.065628216 0.272774 
0.030221894 -0.04367096 0.052959252 
0.08210943 0.35488558 -0.18797451 
0.08304111 -0.37479615 0.079221606 
-0.13099512 -0.23989303 0.027341843 
-0.18287058 0.18067434 0.1430537 
-0.05202064 -0.4225738 0.14550757 
-0.12530835 -0.14750257 0.22569335 
-0.331559 0.18111005 0.1585395 
-0.18608089 -0.3532061 0.13106295 
0.026125811 0.121701345 -0.051921852 
0.09349476 0.03201308 0.11025804 
-0.12972263 -0.31075555 0.14920495 
-0.17435339 -0.07041465 0.076820314 
-0.33223 0.18067433 0.1381201 
-0.030427214 0.13075547 0.049612746 
-0.11482097 -0.36298266 0.23395376 
0.024471356 0.10297003 0.14573845 
-0.07810889 -0.10693042 0.19314347 
0.123529 0.23619165 -0.1505892 
0.17407992 -0.39672107 0.07562092 
0.06482344 0.17612948 0.14324214 
-0.024594527 -0.0065729865 0.042004675 
-0.05157694 -0.2987146 0.10058047 
-0.17390983 -0.48359394 0.14789104 
-0.09362868 -0.37225008 0.20503001 
-0.055696037 -0.102222964 0.09193692 
0.0752633 0.121968456 0.16703343 
-0.22936745 0.18067434 0.19876385 
-0.1061501 -0.4411064 0.022971088 
-0.07475777 -0.42652795 0.10414622 
0.20701559 0.032823797 0.025316954 
-0.18193407 0.019691946 0.03249378 
0.25805768 0.1568978 0.06419286 
-0.10099007 0.04234194 0.18647966 
-0.028582435 0.03778957 -0.0022059896 
0.018501844 0.13561521 -0.042282123 
-0.26449797 0.12026793 0.06709388 
0.22385134 0.036365047 0.097249545 
0.05265854 -0.30511266 0.07633396 
0.152655 0.4587881 -0.24823508 
-0.10552502 -0.11942444 0.21340752 
-0.3377973 0.12054983 0.1830951 
