-0.23643216 -0.12975039 -0.027186843 
0.23046236 0.15899348 0.07478538 
0.10631049 -0.22423041 0.044977855 
-0.13301502 -0.13786191 -0.21387662 
-0.17867598 -0.28004336 0.15206335 
0.035233267 -0.31358656 -0.17230518 
0.13512346 0.115355715 0.18218103 
0.2188257 -0.0791092 0.23301505 
-0.11968907 0.21719728 -0.07944936 
-0.041322824 0.30121848 0.033820473 
-0.25481826 -0.13485074 0.22683094 
0.021357339 -0.23104219 -0.25457734 
-0.26886734 0.054035433 0.039542586 
-0.27905205 -0.050414585 0.31135008 
-0.15664494 -0.36214545 0.0859812 
0.103285305 -0.2798743 -0.03317765 
-0.26787496 -0.16607104 0.12899405 
-0.15767205 0.16312867 0.3295484 
0.0022801477 0.23101996 0.270026 
0.14867517 0.10707378 -0.265558 
0.24883243 0.12910421 -0.25343525 
0.24879397 0.2171548 -0.05398295 
0.26500952 0.051127322 -0.2582873 
-0.007067124 -0.20360431 -0.2607558 
-0.18458577 -0.11893774 0.2317547 
-0.17080913 -0.23123278 -0.028205397 
0.28196988 0.08959279 -0.28320366 
-0.30312738 0.006322748 0.35753608 
0.18920504 -0.21762581 -0.17676882 
-0.12117188 0.2961101 0.15095107 
-0.109984756 0.24579094 0.2001375 
-0.26415443 0.07946887 -0.17399728 
0.027147738 -0.2776634 0.10316784 
0.26050118 0.12445705 -0.28617203 
0.15817387 0.31394428 -0.07305403 
0.11342685 0.044238307 0.24115689 
0.22038285 -0.23509315 -0.22611244 
-0.0026192507 -0.01501418 0.26859495 
-0.19448984 -0.114761196 -0.11903381 
-0.22981958 0.10587624 -0.2248155 
0.28341454 -0.101847865 -0.30262393 
-0.10751445 0.13686079 -0.21158247 
-0.23370732 0.05643494 0.14863546 
-0.2704544 -0.11439393 0.24503386 
0.23723714 -0.11541779 -0.022705385 
0.28257334 0.22271849 -0.09331433 
0.25721732 0.11215642 -0.23853825 
-0.24648307 0.12566374 -0.12548597 
-0.07863514 0.27715364 0.18864135 
-0.20759086 -0.08909804 -0.12037891 
0.24135292 0.0027260561 0.15478149 
-0.16748025 0.19788836 -0.0040872693 
-0.2505681 0.01631552 0.33489227 
-0.18004139 -0.33719042 0.056294885 
-0.22611162 -0.04748553 -0.14561386 
-0.04325659 0.22844349 0.28102803 
0.08143335 0.28405517 -0.069865465 
0.10146879 0.12710917 0.19516653 
0.24822387 0.14961407 -0.2189926 
-0.032800443 0.05959775 0.26628998 
-0.001498516 0.14098784 -0.23112825 
0.23771751 0.10607231 -0.00863247 
0.086959824 0.13064086 0.20045142 
-0.05367525 0.2038321 -0.13820672 
-0.25371596 0.01942883 -0.16454786 
0.19667782 0.26139227 -0.12828891 
0.016315134 0.1584301 0.22656856 
0.24547422 -0.10761224 -0.039601736 
0.14287381 0.25060904 -0.12589896 
0.013478658 -0.25065047 -0.2804872 
0.14882913 0.40811816 0.05621991 
0.11016251 -0.1430836 0.19987223 
0.27990624 0.24644999 -0.08070796 
-0.25906095 -0.026005076 0.120886676 
0.02262722 -0.21527268 0.18625182 
-0.30591035 -0.061831724 0.24227121 
-0.32930782 -0.13222164 0.23357499 
0.0021682752 0.12106561 -0.2679594 
-0.20682783 0.19884892 0.10251129 
-0.070293725 0.21648218 0.29595682 
0.21824318 -0.10545668 -0.19481991 
0.016370974 0.28947055 -0.026905578 
-0.062207405 -0.42555195 -0.15054697 
0.18707237 -0.1769667 0.13594866 
0.09675122 0.30582422 0.08290921 
-0.18007891 0.24345092 0.14678094 
-0.1983923 -0.032704365 -0.20147172 
-0.066133894 -0.101249054 -0.22211179 
-0.096594244 0.23559928 0.24369209 
-0.108634554 -0.054141887 0.27938157 
0.25775674 -0.05678559 0.12930025 
0.25181562 -0.031136129 0.1661139 
-0.052324466 -0.10911784 -0.22787078 
-0.250402 0.044425607 -0.028309159 
-0.06952141 0.26183122 0.009076855 
0.124341905 -0.27696016 -0.07453135 
0.28470784 -0.07324998 -0.30187905 
-0.18423258 -0.1729255 -0.1502496 
0.1141215 -0.2715694 -0.051816896 
0.07536576 0.17253338 -0.21383883 
-0.021226713 -0.36683226 -0.20158595 
-0.03540475 -0.1793896 0.18415214 
0.039157916 0.43994817 0.13692375 
0.08532784 -0.315637 -0.03301912 
0.14858723 0.025839452 0.22484124 
0.111694194 0.24925907 -0.18382818 
0.26728758 -0.07453769 0.110038 
-0.17211887 -0.35541046 0.04304082 
0.2571575 0.20745581 -0.062057078 
0.21844622 0.09283851 0.103015535 
-0.264104 0.039850228 0.071603484 
0.11647386 0.13980974 -0.24298145 
-0.12789702 -0.21576078 -0.1115639 
-0.1731309 -0.0044096634 -0.2392982 
-0.15015009 0.21563795 -0.012238951 
-0.101713665 0.31680283 0.15085702 
-0.095563136 -0.1041741 0.28792742 
0.2796147 -0.12586193 -0.30852368 
-0.09317092 0.25949016 0.03300942 
0.09237723 0.21706487 -0.20773663 
-0.22947736 -0.20350446 0.15902849 
-0.053485177 0.14656359 -0.21780187 
0.25301006 -0.063411 -0.12975836 
0.2174321 0.029441543 0.20050155 
0.25237253 0.06413769 -0.32143885 
-0.18110344 -0.23251906 -0.003345576 
0.12622668 0.19775012 0.16894108 
-0.11797213 0.13411097 -0.22435573 
0.03869315 0.4320109 0.13654222 
-0.043357816 0.084983796 0.2549477 
0.21951373 -0.111218676 -0.12851517 
-0.17232643 0.18900529 -0.11127682 
0.06965775 0.15471229 -0.21736665 
0.24451928 -0.17318971 -0.280272 
-0.047459006 0.2165699 0.30001023 
0.15657824 0.37426385 -0.020763563 
0.27475354 0.10526802 -0.0848613 
-0.21746485 0.20429625 0.12190292 
0.30366677 0.08896261 -0.33003217 
-0.331913 -0.12982842 0.23965594 
0.13072506 0.11092944 -0.2564863 
-0.23783974 0.060803123 0.19466142 
-0.1595255 -0.36511213 0.015436841 
0.0012107157 -0.06988942 0.24138531 
0.21330923 0.08735723 0.11119187 
-0.008724213 0.3548322 0.150202 
-0.2784567 -0.15042073 0.0678525 
0.015054768 -0.048503637 0.24633083 
0.19283812 -0.016543485 0.21809857 
-0.28200978 -0.13444777 0.20179385 
-0.03457937 0.32694408 0.1588344 
-0.18267575 0.17106374 -0.06959772 
-0.0034537374 0.23754986 0.27477035 
0.1787286 0.22749399 0.019343514 
-0.06406736 0.11050548 -0.22466977 
-0.12265759 -0.095353946 -0.2364114 
-0.20388596 -0.19836472 -0.06538064 
-0.10846636 -0.19346114 -0.14816317 
0.13072583 0.055641178 0.23890485 
0.28728485 0.13388374 -0.12674943 
-0.23454 -0.105083294 0.24208991 
-0.1387788 -0.12788619 -0.21769688 
0.13094608 -0.20175327 0.10326814 
0.2525588 -0.07737755 -0.25550598 
0.18090639 0.23040965 0.0147486925 
-0.019061016 0.2561648 -0.12638472 
-0.32859054 -0.052682813 0.35698444 
-0.042203017 -0.25948298 0.088910356 
0.2430367 0.14152287 -0.18879446 
-0.10409497 0.24948385 0.03131097 
-0.040704947 -0.34445542 -0.058513813 
0.20307712 0.2946811 -0.0069395215 
0.026403857 0.4532002 0.13706425 
0.108911805 0.25138953 -0.18277414 
-0.25237492 0.05428925 -0.0326125 
-0.040044695 0.18130612 -0.19176143 
0.08221118 0.040166568 0.25385153 
0.17304587 0.3724755 0.030407628 
0.2244121 -0.12593932 0.05678236 
-0.020528287 0.364932 0.08570028 
0.1964437 0.19002248 0.064366296 
0.107732825 -0.31542572 -0.050047733 
0.24814895 0.06820515 -0.009319691 
-0.14823435 -0.31330106 0.16493618 
-0.15311538 0.031724777 0.27371347 
-0.28237918 -0.052676886 0.17469576 
0.12624179 0.43957528 0.06670141 
0.13127711 0.2673423 -0.105654396 
0.16316402 -0.0841872 0.23799612 
0.114408925 0.25064075 0.106567316 
-0.11456852 0.18812178 0.32705575 
0.18079692 0.3883698 0.006773138 
0.25393516 -0.0426715 0.15289888 
-0.012202973 -0.2673933 -0.24810247 
-0.16168202 0.25199902 0.14801018 
0.10986389 -0.025664976 -0.26746657 
0.06586436 0.17163129 -0.20947506 
0.25304717 -0.031139567 0.0012773857 
-0.2336457 0.1163898 -0.08526056 
0.17514487 0.017541887 -0.28996205 
-0.066978335 0.24755675 -0.09848481 
0.046916407 0.3428125 0.011825753 
-0.17556947 0.27585924 0.15223743 
0.047297053 0.013562423 -0.2697785 
-0.01160475 0.025683912 0.29527384 
0.2779439 -0.07805672 -0.083987154 
0.10572263 -0.26163778 -0.19942296 
-0.14673865 0.12696716 0.32138154 
-0.2063737 0.20037866 0.1035629 
-0.042661738 -0.02558828 -0.24715641 
-0.31243604 -0.11327219 0.19840644 
0.22266261 -0.13809788 0.012775754 
0.23181045 -0.10745914 -0.22552626 
-0.17366119 -0.30609843 0.13294417 
0.2376497 -0.094013706 0.22653376 
-0.30646324 -0.15290712 0.14098117 
-0.109661505 -0.17879386 -0.15541579 
-0.16059776 0.05156461 0.286533 
-0.27591392 -0.13057736 0.075935565 
-0.020812416 0.065444 0.26498976 
0.14309143 0.23769669 -0.14034747 
-0.182312 0.17548722 0.28325155 
0.2560026 -0.105629995 0.12732737 
-0.018273724 -0.12837847 0.21827106 
-0.072530985 0.25068223 -0.011022631 
0.11447099 0.11511921 0.1985337 
0.029717308 -0.32070836 -0.17304166 
-0.18193273 0.16083708 0.16438474 
-0.28248176 -0.055336 -0.044432234 
-0.10871529 0.24831973 0.18887381 
0.20819755 0.1920016 -0.18789716 
0.20156676 0.047558516 -0.29906473 
-0.22564344 0.07696204 0.14230803 
0.23744258 0.11539835 0.011542079 
-0.046324756 -0.4063002 -0.17879735 
0.054375242 -0.27758223 -0.20149091 
0.027977314 0.25359526 0.2068074 
-0.259236 -0.15871602 0.15177377 
0.24304564 0.14789703 0.08173349 
0.22583623 -0.09568285 -0.31490186 
0.011252476 0.06852194 -0.28074852 
-0.043511357 -0.034930877 0.2899874 
0.22843602 0.35081148 -0.014702803 
-0.29124197 -0.19192486 0.07042088 
-0.17331415 -0.2559301 0.18195654 
0.12347928 0.37803993 -0.000314213 
-0.09028623 -0.23928908 -0.15318488 
0.15447412 0.4000989 0.013510977 
0.23960656 -0.069221385 -0.1402351 
0.06180891 0.2556956 -0.12375384 
0.26917928 0.27333286 -0.06820308 
-0.1410263 -0.28133863 0.18035369 
-0.09931373 -0.14403364 0.24856845 
0.05329015 -0.21898751 0.14614473 
-0.20220621 0.12831858 0.15256502 
0.0011267276 0.42324382 0.12748042 
0.06841816 0.33109057 -0.013586038 
-0.15728164 0.21269754 -0.05271046 
0.21229176 -0.00504186 0.20459974 
-0.26348725 0.05880597 0.035544652 
-0.22268072 -0.19828372 0.080323294 
0.26427293 0.17471428 -0.071221486 
0.15822949 -0.19856237 0.10835852 
0.007861164 -0.33804148 -0.16440424 
-0.09506588 0.33285442 0.12016266 
0.28629115 0.08568433 -0.09612887 
-0.15281053 -0.016256588 -0.22759709 
-0.12579706 0.18813051 0.31188554 
0.1427438 0.30397162 -0.075611964 
0.23157537 -0.11447319 0.0532011 
-0.13934916 -0.04592831 0.2607783 
-0.12568976 -0.35468638 0.084776215 
-0.11735079 -0.33751193 -0.080473475 
-0.22384542 0.13136786 -0.19331513 
0.11866569 0.36297444 -0.011237509 
-0.2388303 -0.07369265 0.2639876 
0.17418729 -0.06523264 -0.2922526 
-0.16727231 0.1456343 0.35390085 
0.07577665 -0.2396338 0.06936015 
-0.09352573 0.20260765 -0.15364294 
-0.05331266 0.08850318 -0.23447905 
-0.16146672 -0.27695706 0.18926437 
-0.082416795 -0.2186243 0.15728815 
-0.17221949 0.16220489 -0.14862075 
-0.086882606 0.19815455 0.32018661 
0.17625865 0.21158615 0.09966839 
-0.25211495 0.07904007 -0.027046902 
0.22891548 -0.11183558 -0.11443269 
0.2613142 0.04611954 -0.1591409 
-0.14425364 0.21230842 0.17283604 
0.19101581 -0.20156229 0.037423007 
-0.18391131 -0.09463426 -0.14637917 
0.27396536 -0.005310258 -0.33752686 
-0.21126343 0.13572936 -0.19445905 
-0.24406718 -0.061640017 -0.1190404 
0.22040111 0.0423783 0.15661685 
0.080568455 0.24814515 0.20827216 
0.25709495 0.29619017 -0.056805544 
0.017235981 -0.28767148 0.054908324 
0.08296258 0.30473223 0.094776176 
0.13895558 -0.14559509 0.19398071 
-0.20465632 0.13567765 0.13927147 
0.18768443 -0.19380066 0.10695071 
0.1115216 0.24678539 0.13384299 
0.08314595 0.358491 0.0045289206 
0.06118303 -0.29880607 -0.08645963 
-0.15717348 -0.36352548 0.08030469 
0.07308125 0.08773794 0.24874055 
0.16579631 -0.061551616 -0.28868166 
0.040697824 0.23510665 0.24383143 
0.24009188 -0.091568865 0.029262098 
-0.16514881 -0.26677418 0.18953453 
-0.15721574 -0.14732994 -0.19094497 
-0.037554305 -0.109555386 -0.23972902 
-0.04145461 -0.42229608 -0.15329273 
-0.19948074 0.14757201 0.1409465 
-0.1787951 0.19148429 -0.118500814 
0.044285793 0.20116065 0.2221077 
0.15976422 -0.1568025 0.18351589 
0.054937936 0.251754 0.20557052 
-0.25894913 0.120730795 -0.027805451 
0.05968884 0.3674008 0.112853296 
-0.2951959 -0.0046710838 0.29649323 
0.1815366 -0.101370886 -0.2935706 
-0.12834437 -0.35807386 -0.05351709 
0.20412831 -0.10495268 0.22286795 
0.061893485 0.15297614 -0.2148238 
-0.27253017 0.07095075 0.08646417 
0.047446035 0.15960608 0.21028703 
0.32215267 0.029512597 -0.34351403 
0.17890048 -0.13843098 -0.28921965 
0.028646639 0.33211905 0.13334766 
0.118244946 0.14043297 -0.24365586 
-0.191219 0.12504153 0.36069098 
0.10928162 0.41731527 0.08688774 
0.2351949 -0.10948856 -0.31858343 
-0.13130124 0.039074067 0.2683846 
0.20113228 0.019797526 0.20581052 
-0.2744483 -0.038275916 0.1663315 
0.16056763 -0.06621446 0.25130793 
0.17235264 0.40087152 0.020508872 
-0.18566644 -0.17617223 -0.14889473 
-0.024089774 0.34289956 0.0654284 
-0.15996552 0.20322978 -0.13280655 
0.24523996 -0.044390224 0.20142552 
-0.22062205 0.09721452 0.20663506 
-0.09165067 0.2999523 0.08071087 
-0.27158147 -0.035388406 -0.0027937887 
-0.21802065 -0.033790596 -0.16133027 
-0.24060866 -0.037455335 0.28855392 
0.103140116 -0.023347685 -0.26543015 
0.002344249 0.3041671 0.15592392 
0.1903071 -0.18371123 -0.039989498 
0.0012258529 0.34255067 0.15218201 
-0.31172252 -0.05892684 0.2660501 
0.11903794 0.03659321 -0.26489034 
-0.033862874 -0.051647414 -0.24880257 
0.25153264 0.036776055 -0.32381758 
-0.12697326 -0.23348278 0.20101619 
-0.119400255 -0.36800954 -0.067297034 
-0.031737987 0.17445764 -0.20146304 
0.26931274 -0.06317076 0.0998121 
-0.18094884 -0.23343721 -0.0026867224 
-0.07618009 -0.29569247 -0.1591269 
-0.08662261 -0.3095736 0.059819635 
-0.2357513 -0.18351968 0.14971292 
0.057733998 -0.07018512 -0.26760498 
-0.11727322 0.23970273 0.1858845 
-0.2994575 -0.11684354 0.15574196 
0.27942237 0.1075062 -0.30459672 
0.036504578 0.27290037 0.15453327 
0.07932435 0.17028403 -0.21646708 
0.19367045 0.043545812 -0.29582652 
0.001669529 -0.28985515 -0.2624542 
-0.17076224 -0.1812098 -0.1450142 
0.31618387 0.05418723 -0.3338056 
0.07845927 -0.116017215 0.25135824 
-0.016834239 -0.35509008 -0.118440494 
-0.23572153 0.0898702 0.0027387023 
0.19814965 0.11419339 0.116587065 
0.09906104 -0.31175253 -0.06878459 
-0.06619286 -0.22702998 -0.18745157 
0.06480536 0.2582826 0.16277206 
-0.1797135 0.033464316 -0.23928963 
-0.18072827 0.17539494 0.27519277 
0.254678 -0.109218486 0.17615809 
-0.30569142 -0.12983374 0.22018814 
-0.24463278 -0.0698445 -0.044959545 
-0.02318295 -0.3854344 -0.14960878 
0.23521334 -0.04675326 -0.3202693 
-0.009700967 -0.03977421 -0.26764917 
0.21582201 0.16303562 -0.23907526 
0.037134495 0.09618067 0.24495645 
0.122891605 -0.21865164 -0.24859911 
-0.05732992 -0.20558238 0.15914175 
0.16990586 -0.096672125 -0.28886563 
0.12022486 0.26490495 -0.20771812 
-0.10147956 0.07212532 -0.25648525 
0.08323551 0.3752211 0.097007826 
-0.15078638 0.027972775 -0.24142933 
0.2593285 0.10669971 -0.069175474 
-0.32446885 -0.036083177 0.34533155 
-0.18793286 -0.045499846 0.25645515 
0.067397535 0.25106496 0.19764455 
0.2804483 0.04349101 -0.14048156 
0.015699668 0.113390416 -0.24341203 
-0.29333365 0.010691859 0.3175816 
0.1706082 0.22120608 0.14741836 
0.15480699 0.1304078 0.15085794 
-0.054628074 0.09427322 -0.23238705 
-0.11831899 -0.29128942 -0.09366293 
0.0017524421 -0.21152826 -0.2702113 
0.13163887 -0.21707883 0.0053769536 
-0.2404161 -0.07945275 -0.11817519 
0.22429205 0.31748298 -0.05489498 
0.08309122 -0.24453752 -0.22415702 
0.08955598 0.3816475 0.022699757 
0.25112337 0.092859425 0.07686198 
-0.105446525 -0.4515398 -0.032442253 
-0.2837365 -0.009595427 0.34669375 
-0.09699562 -0.13960382 -0.19043827 
0.23841117 0.26570567 -0.03911384 
0.09949216 0.07413333 -0.2515788 
0.24952313 0.30298677 -0.040100284 
-0.14404027 -0.1567951 -0.18531978 
-0.28723735 -0.16625239 0.079046726 
-0.24769278 0.14906868 -0.022318503 
0.1076439 0.19821404 -0.22196731 
-0.21338788 -0.010192668 -0.18442883 
0.024732318 -0.15178062 0.22393562 
-0.049052805 0.08910699 -0.23523735 
0.04274681 0.09078369 0.24923302 
0.13660996 0.046231367 -0.27043322 
0.08332044 0.24679753 0.22005449 
0.0721037 0.25258607 -0.12051192 
0.24433976 0.13169612 -0.18905507 
0.31748042 0.08697979 -0.35018232 
-0.19065063 0.24848957 0.13514006 
0.05976879 -0.0023276443 -0.2629754 
-0.22351322 0.093053006 -0.2292301 
0.12971474 -0.27825344 -0.08474761 
0.07422944 0.26381668 -0.18109399 
-0.3152403 -0.07948157 0.24916804 
-0.018193197 -0.30228826 -0.018869396 
-0.10913235 -0.032622226 -0.24682702 
0.23520188 0.017619666 0.14967999 
-0.26908502 0.026974421 0.25706992 
-0.02109141 -0.06057431 -0.25756449 
-0.26331997 -0.039192643 0.122355185 
0.14139706 0.22461152 -0.19408722 
0.016132616 0.22841334 0.2575918 
0.026744453 0.079352595 -0.26613042 
-0.044860978 -0.22435905 0.13834022 
-0.10672549 0.15125981 0.3039469 
0.1294501 0.43391922 0.05801486 
0.19354515 -0.16610758 0.12731026 
0.16350883 -0.20551725 0.069717355 
-0.12304058 -0.3474971 0.08612398 
0.16147977 -0.29314974 -0.14144099 
0.29794484 0.09265516 -0.3235703 
-0.15466294 -0.14019416 -0.19301774 
-0.26201963 -0.058118496 0.094892725 
-0.1730179 -0.3145918 0.028037421 
-0.12929864 -0.23401807 -0.09965234 
0.19745582 -0.15750532 0.14038955 
0.08647814 0.23424892 0.21173061 
-0.217976 0.19911635 0.1384334 
-0.07449726 0.067785576 0.26041383 
0.06747285 0.41971484 0.073435485 
0.2273855 -0.20211641 -0.23357037 
0.2560337 0.08570834 -0.23696636 
-0.29019272 0.033722434 0.059117228 
-0.23911065 0.09247858 0.34187242 
-0.009187496 0.26775083 0.18821351 
0.27742326 0.24445191 -0.07133986 
-0.2755253 -0.19172357 0.0328059 
0.18086484 0.22143556 -0.2493591 
-0.0030045456 -0.15145954 0.21212205 
-0.0718295 -0.030654328 0.2965555 
-0.26558223 -0.034036312 0.13819964 
-0.039278056 -0.40082487 -0.12021267 
0.056035656 0.26831582 -0.16850628 
-0.22758661 0.10391875 0.26346081 
0.24831268 -0.041723676 -0.24121961 
0.09531443 0.33050078 -0.029466389 
-0.16607931 -0.036475714 -0.21604064 
0.25415325 -0.034028452 -0.053305335 
0.22980224 0.002324891 0.19598019 
0.03601168 0.2782158 -0.05464731 
0.16703969 0.098556645 0.16856246 
-0.25105563 0.0026458688 0.12855206 
-0.10985125 0.062092062 -0.24722986 
0.20571125 -0.009219475 0.20920369 
-0.13272718 -0.16746844 0.27076778 
-0.20995644 -0.13713491 0.2185832 
0.012996763 0.24662435 -0.15059708 
0.056492582 0.42307582 0.08462237 
-0.19292974 -0.080907024 -0.15499692 
0.10836054 -0.20963986 0.092106774 
-0.1975081 0.1485708 -0.15096714 
-0.25991955 0.072419815 -0.18539625 
0.06014218 0.39111874 0.050730433 
-0.064522564 -0.099201106 0.25024754 
0.15862258 0.21401584 0.15698351 
-0.106543586 -0.36829796 -0.090615265 
0.2617629 -0.13206089 -0.2757494 
-0.29237697 -0.19301124 0.07246012 
0.13721341 -0.20009108 0.10718051 
-0.14435346 -0.17004721 -0.14971836 
0.18289988 0.21543528 0.020939833 
0.20513242 -0.13467151 -0.17738454 
-0.008550202 0.2181498 -0.15149598 
0.0057894355 -0.26855862 -0.26972222 
-0.19662462 0.18291047 0.070610024 
0.25929707 -0.024470372 0.016098257 
0.11851772 -0.15593372 -0.26075754 
0.04738825 -0.24095294 0.1324331 
-0.25070593 -0.06017209 0.045433413 
0.28408885 0.040465627 -0.13727757 
0.04025416 0.28110382 -0.05269096 
-0.11619584 0.23641367 0.0264426 
-0.017349297 -0.37880063 -0.14382976 
0.06565866 -0.17998983 0.18295991 
0.17610152 -0.18836242 -0.04840052 
0.10641607 -0.30723673 -0.088780515 
0.050242446 -0.2155737 -0.23013951 
0.13132308 -0.22078641 -0.25195533 
-0.113443136 -0.38102683 0.039374404 
-0.28027692 -0.06180095 0.30411792 
-0.2501641 0.10161873 -0.17002323 
-0.049592737 -0.19975881 0.16462 
0.16768567 0.39290306 0.007885162 
-0.03820441 0.20663314 0.28525764 
0.097625405 0.24587135 0.20312513 
-0.12796503 -0.42046723 -0.014642618 
-0.20824276 -0.23082668 0.07899263 
0.24726637 0.25385487 -0.0957348 
-0.0651473 0.11003863 0.25872126 
0.051342927 0.3288594 0.11681538 
0.24187858 -0.076805376 -0.2370122 
0.23082955 0.09234822 -0.30730292 
-0.07815715 0.05781574 -0.258055 
0.24178754 -0.088705204 -0.028640516 
-0.09273647 -0.14983577 0.23367628 
-0.1401689 -0.19638851 -0.11140254 
0.13579947 0.23332857 0.1801705 
0.0024449553 -0.29228893 0.010955775 
-0.047750663 -0.032528806 0.29937494 
0.005724225 0.21893723 0.25910205 
0.2401197 -0.070642896 -0.32250997 
-0.04189148 -0.3538271 -0.06751291 
-0.25270674 -0.090943344 0.03534036 
0.074351475 -0.083539605 0.24987788 
0.008144408 -0.2659861 0.105489194 
-0.17485808 -0.18450461 -0.1358871 
0.18463767 0.34065396 0.015175257 
0.06705465 0.27731562 -0.16111732 
0.034934897 -0.1666241 -0.27303427 
-0.13126324 -0.35246432 0.097507454 
-0.012854341 0.16425933 0.24451847 
-0.15936303 0.2826425 0.13499235 
-0.13660921 0.2192544 0.027292019 
-0.07294148 -0.46802855 -0.12276138 
0.2157216 0.33331183 -0.043291766 
-0.19541222 -0.21387774 0.008711755 
-0.16630508 0.07680395 0.30443665 
-0.0854211 -0.18538041 0.19242486 
0.17518571 -0.20803311 -0.14852354 
-0.0027016297 0.2740496 -0.12901072 
-0.15629168 -0.2143627 -0.071110815 
-0.00546214 0.025221 0.29810095 
0.0043855393 0.28045967 -0.11044949 
-0.26754144 -0.059917465 -0.046350595 
0.10828319 0.25167766 0.1160656 
-0.2225004 0.18694727 0.110275894 
0.018425114 0.2702679 -0.10957455 
-0.024007086 -0.3390883 -0.22251235 
-0.23824567 -0.1782353 0.1590148 
-0.09576863 0.2067174 0.2981866 
-0.32323575 -0.085249074 0.26688734 
-0.14224236 -0.19738245 -0.10824478 
0.06919712 -0.047341213 -0.26328686 
0.057633538 0.082977295 -0.23946987 
-0.23060031 0.06444493 0.13971192 
0.25881004 -0.06286647 0.12788618 
0.20242767 -0.16200061 0.08171141 
-0.15454775 0.29577363 0.14344004 
-0.16176745 -0.23277202 -0.045021206 
-0.2277953 -0.19913408 -0.011176754 
-0.15034865 0.12752603 0.32488838 
-0.23997448 0.15571235 -0.023810644 
0.18095122 0.11541959 0.1335018 
-0.066633016 0.22461751 0.27385065 
0.17688863 -0.2445469 -0.16111296 
-0.20326653 -0.032870606 0.26789838 
-0.07125422 -0.117109045 -0.21359855 
0.044156443 0.31715846 0.12323611 
-0.15342073 0.2548695 0.09805119 
-0.3217241 -0.11522355 0.2573058 
0.019721774 0.08991835 -0.28137016 
-0.3126568 -0.07669947 0.24445055 
0.080479026 -0.0052104606 0.24373874 
0.05527633 -0.13545981 0.24127796 
-0.20721392 -0.18958654 0.19015235 
0.20714806 0.046184547 0.19738849 
0.0045509273 0.1268598 -0.2547464 
-0.17272109 0.21426831 0.07502514 
-0.095164664 0.20366175 0.30688116 
-0.26774728 0.047169916 0.03040096 
0.15878591 0.22376469 0.11184699 
-0.21518473 -0.1871627 0.18944092 
0.022147048 -0.15977879 0.21951663 
0.022465175 -0.18771468 0.20568977 
0.002443837 0.34317824 0.15141307 
-0.09420501 0.19381627 -0.17993253 
-0.17383923 -0.044171028 -0.20996554 
-0.16296431 -0.1956061 -0.088275686 
0.026915789 -0.20106734 0.20002727 
-0.099960126 -0.15941462 0.23378095 
-0.31149983 -0.17228892 0.14439167 
0.2601831 -0.102731846 0.13200079 
-0.017318465 0.15938202 -0.22713768 
0.24321048 -0.0041674185 0.17180249 
0.15107717 0.17657284 0.14789815 
0.015478665 0.380013 0.07224505 
0.27496895 0.09332667 -0.14379995 
-0.24135095 -0.070985 -0.03213778 
-0.2538096 -0.19635122 0.030882541 
0.20761628 -0.18235908 0.04115621 
-0.28583017 -0.1369401 0.098142944 
0.20844024 -0.13616638 0.19288701 
-0.060418073 -0.32940066 -0.1746428 
-0.22934802 0.1447546 0.07455797 
-0.11889323 0.16532117 -0.17476428 
0.21826705 -0.18382573 -0.21803316 
-0.0490131 0.3984074 0.15028252 
0.04990964 0.1540855 0.20939152 
0.1385599 -0.20655525 0.081462674 
0.17782363 -0.19156927 0.12837052 
0.05092872 -0.16321796 -0.25102133 
0.23289089 0.14178212 0.04507716 
0.30256233 0.050515212 -0.12485812 
-0.03489031 -0.23386243 0.12910745 
0.13984582 -0.2859536 -0.15048966 
-0.077122234 -0.18788074 0.18366507 
0.21585709 -0.10035373 -0.1816289 
-0.2684076 0.027189963 0.3602416 
-0.13300356 0.15010017 0.32576978 
-0.10195545 0.2217832 -0.08971495 
-0.18653907 -0.1928427 -0.0970451 
-0.1530123 0.29515567 0.14108902 
0.06363517 0.31665242 -0.025601983 
-0.25819752 0.02521845 -0.00989573 
-0.08403035 -0.17351331 -0.18237823 
-0.3057676 -0.010323716 0.36800122 
-0.24143167 -0.074156255 -0.0069746566 
0.24567054 0.04626946 -0.19876722 
-0.02769222 0.27593836 0.18827064 
0.13432685 0.2664144 0.057231896 
-0.09318673 0.20730187 0.2992292 
0.16326246 -0.08819758 -0.2865448 
-0.19440867 0.14608453 0.23419479 
-0.28627068 -0.050420143 0.19118597 
-0.21144508 -0.24204993 0.10588545 
0.02337345 0.28078955 -0.0429055 
-0.0075703743 -0.23211147 0.14641222 
-0.21671662 0.12562163 -0.20036656 
-0.2473934 0.09150323 0.31585383 
-0.23253384 0.12510873 0.1185765 
-0.21630843 0.0974757 0.1681457 
0.04551866 -0.08166313 0.24412106 
-0.18585773 0.06569309 0.31308204 
0.14249928 -0.16877688 -0.26844266 
0.24344301 0.3219981 -0.040831633 
0.2956619 -0.023269717 -0.31241676 
-0.03134015 0.09971137 -0.24158382 
0.2732763 -0.13541394 -0.29183528 
0.25570697 0.06523005 -0.06120481 
0.18504699 0.2384635 -0.14466365 
0.04671047 0.24820282 0.2311762 
-0.27396917 -0.008996318 0.3379544 
-0.30503345 -0.12919854 0.1595714 
-0.3197564 -0.03129825 0.33673894 
-0.23185223 -0.08450645 -0.049569666 
-0.13411881 -0.36619607 0.09152245 
-0.29159868 -0.033762146 0.23467307 
-0.016053202 -0.14062056 0.21336326 
-0.04411777 -0.21801054 -0.21570961 
-0.059381638 0.21057178 0.30565545 
-0.20708854 0.15107118 0.0027272976 
-0.26440397 -0.032191373 0.13626125 
0.26501846 0.29650685 -0.052683007 
-0.06855211 -0.1413722 0.21869774 
-0.18977559 0.022100145 -0.22418863 
0.19821827 0.08853287 0.1318183 
0.07075578 -0.2171227 0.1178745 
0.23319243 0.14929505 0.06161878 
0.2554507 -0.051201332 0.14107376 
0.25093755 -0.06725681 -0.04870557 
0.23929882 0.099709794 -0.01943864 
0.21903016 -0.23189874 -0.22396658 
-0.2064912 -0.16448833 -0.10398467 
0.1936745 -0.17172176 0.10905043 
-0.2475392 0.008950582 0.3264322 
-0.30720133 -0.029097429 0.29696405 
0.2510575 0.030548114 -0.021727538 
-0.16676328 -0.33987406 0.09769179 
-0.2114403 -0.057484012 0.258802 
-0.2616002 -0.0671853 0.2845742 
-0.04286931 0.22284377 0.3007715 
0.07152253 -0.027576625 0.24549857 
0.0702011 -0.10086365 -0.25972164 
-0.059898734 -0.31257647 -0.17924559 
0.25571293 -0.12839948 -0.052187625 
-0.2627143 0.05857855 0.35763097 
0.20682259 -0.22258908 -0.20533499 
0.2119612 -0.12992258 0.20868516 
0.118793525 0.075953715 -0.25846374 
0.04845183 0.42094028 0.1309497 
0.095427774 -0.107576385 0.25358263 
0.23015523 0.15249519 -0.25866905 
0.120218694 0.2415689 0.16254902 
0.18933474 -0.17986907 -0.051244482 
0.24192867 -0.11205739 0.2017631 
0.23910658 0.14263605 0.063173376 
0.24506983 -0.11585184 0.13645285 
0.25613222 -0.047835566 0.13074961 
0.14484832 -0.224708 -0.089401044 
-0.058317203 -0.45915437 -0.13051625 
-0.057186812 -0.28682718 -0.18770552 
-0.04409035 -0.02690357 0.30105555 
0.113688335 0.08766983 -0.25413224 
-0.2299854 -0.066714115 0.26302037 
0.18225461 0.10572553 0.1391353 
0.23572354 0.15926209 0.08820634 
-0.09442813 -0.24571723 -0.14541502 
0.0797256 0.20287879 0.1999011 
0.09947186 -0.25150865 -0.22814152 
0.25382066 0.026837988 -0.16600373 
-0.10059056 -0.18337563 -0.16173148 
-0.2227785 -0.2042056 0.10559922 
-0.15810524 -0.16452028 -0.19189528 
-0.18911746 -0.15884165 -0.1355681 
-0.09562459 0.24079365 -0.02360228 
0.15583766 0.14386825 -0.26109982 
-0.24501011 -0.13687173 0.22654034 
0.26824018 -0.057138875 0.0609032 
-0.14880678 0.18458422 -0.14642312 
-0.08860812 -0.27125546 0.1054296 
-0.14618477 -0.31926596 -0.031676695 
-0.076848954 0.06414272 0.26099297 
0.25763157 0.30137253 -0.052236572 
0.00790216 -0.2877506 -0.21994676 
-0.015960881 -0.12778392 -0.25768417 
-0.2748961 -0.016365513 0.20059612 
-0.0074922163 0.39463782 0.10521364 
0.23552658 -0.09917503 0.022668285 
0.13657951 0.24452652 -0.21065877 
0.25973138 -0.09189051 0.14506823 
0.025560573 -0.053219687 0.24483484 
-0.022738745 -0.2259722 0.14435863 
-0.18838169 -0.25164488 0.1627385 
0.2642259 0.18870534 -0.069832556 
0.22108151 0.18085907 0.10817534 
0.30344486 0.1646288 -0.106766954 
-0.10531285 0.18655728 0.32798818 
-0.23368016 -0.20814623 -0.06846193 
-0.06862529 -0.47814193 -0.12757117 
-0.18419152 0.08685513 -0.23994753 
-0.11213765 -0.08920829 -0.25404584 
0.2181151 0.20107344 -0.025788654 
0.0066745826 0.15804805 -0.19729906 
-0.15557063 -0.33227336 -0.0061031375 
0.010170819 -0.29381832 0.010761404 
0.10598628 -0.29736835 -0.114036165 
0.26803687 -0.12977867 -0.30631694 
-0.051990345 -0.40332657 -0.09729875 
0.1736423 -0.0059092026 -0.2908695 
-0.24663465 0.1245609 -0.039205242 
-0.16334988 -0.27104422 0.1901012 
-0.2619444 -0.013178956 0.15385567 
-0.22831628 -0.19724932 0.12797298 
-0.010594771 -0.2936365 0.0038242296 
0.002689433 0.2659594 -0.08990333 
-0.05602031 0.31876144 0.15483263 
-0.018476648 0.10635848 -0.25062305 
0.05334789 0.010760848 -0.26415646 
-0.0987441 -0.06697208 -0.2587471 
-0.09237085 0.11519663 0.27387393 
0.13223863 0.11074353 -0.2572245 
0.055749007 -0.1748397 0.20818527 
0.035138465 -0.14411113 -0.29797488 
-0.057224013 -0.4546032 -0.15127513 
-0.089858875 0.0008222722 -0.27462432 
0.26141733 0.25096494 -0.08870305 
-0.18365939 -0.31404772 0.10019889 
0.28345272 0.108252764 -0.092451155 
0.16997252 0.11013637 0.1504811 
0.1866476 -0.12601529 -0.29432273 
-0.2178347 -0.03021327 0.27756637 
0.027835757 -0.21385923 0.19125782 
-0.29688856 0.0100536 0.32945445 
-0.16558908 -0.17020476 -0.18431178 
0.115314804 0.23511358 -0.15589753 
0.081419796 0.17343242 -0.21649949 
0.2682657 0.03894838 0.030535031 
0.18592368 0.20313226 -0.24072407 
-0.15446617 -0.07028558 -0.19286159 
0.28566015 0.104316995 -0.31299195 
0.1931964 -0.17984104 -0.17355826 
-0.2510045 -0.08698248 0.0318331 
0.22023514 -0.17339268 0.011252279 
0.24640037 -0.084962 0.22604088 
-0.017668016 -0.22649172 0.1464041 
0.29185018 0.035134647 -0.34366643 
-0.14300407 0.2095049 0.20176463 
0.058549028 0.3100413 0.11358146 
0.2655846 0.06532936 0.036200862 
0.19756192 -0.17685916 0.07892303 
-0.13837358 -0.15584673 0.26395366 
-0.03718635 0.3222058 0.16173647 
0.2534371 0.12752227 0.07069454 
-0.31926003 -0.027010582 0.34233132 
-0.29706073 -0.014424763 0.2859163 
-0.16033995 -0.33634713 0.0061167832 
0.31522614 0.022443485 -0.33493274 
0.122809224 -0.22070426 0.017223366 
-0.0036973516 -0.25849703 0.10901855 
-0.05191998 0.294539 0.19096136 
0.25180376 0.09748818 -0.22536588 
0.2690701 0.17042366 -0.12817493 
0.28911725 0.05810425 -0.3401619 
-0.19031236 -0.115499996 -0.12681149 
0.041169256 -0.17096235 0.22461359 
0.20506556 -0.14500725 0.16308278 
-0.21890438 -0.06485813 -0.1769175 
0.25721696 0.25654688 -0.054664984 
0.21840777 -0.08005275 -0.31183538 
-0.11152079 -0.34393576 -0.088998415 
-0.017991213 0.26271766 -0.0702335 
-0.03642321 -0.39122286 -0.117244944 
-0.25718066 0.029514266 0.21296488 
0.014306546 0.24857144 -0.15061659 
-0.10626922 0.054585073 -0.25047415 
-0.21233226 0.11248752 0.35126165 
0.12150612 -0.12912317 0.21096595 
-0.019161202 0.41206864 0.14601508 
0.14642608 -0.21076615 -0.06548155 
-0.06643824 -0.46361804 -0.11779972 
0.055376053 0.13508558 0.21274148 
0.22961535 -0.07228839 -0.20845471 
0.27203324 0.015907586 -0.14398825 
0.25057322 -0.01717221 -0.034883942 
-0.08225045 -0.4472075 -0.11213317 
0.04178783 -0.30173728 -0.042901024 
-0.15979777 0.27732125 0.1298004 
0.042507518 0.2552424 -0.16509119 
-0.20150775 0.14965734 -0.14003237 
-0.13685663 -0.3174489 -0.050966248 
0.1949323 -0.10386054 0.22339982 
-0.06344018 0.26937705 -0.06389746 
-0.23682031 -0.18207534 0.11631025 
-0.1678353 -0.36284497 0.03535312 
0.067972735 0.017101005 -0.2575036 
-0.22621389 -0.19599076 0.10102528 
-0.1201372 0.2003126 -0.10180529 
-0.1323663 -0.41409498 0.012269175 
-0.21516198 -0.21264753 0.08213687 
-0.29445967 -0.17435358 0.1254387 
0.114626735 0.29135802 -0.07604012 
0.10114199 0.23593375 -0.20635813 
-0.025663974 -0.059118412 0.25317535 
0.19791648 -0.15151799 0.170687 
0.19235246 0.12199693 -0.28341332 
-0.04585786 0.27019352 -0.0034926161 
0.117368415 0.056833692 -0.26132637 
-0.069450684 0.24848655 0.22783588 
0.24131389 3.887362e-05 0.17428453 
0.2521388 0.008543091 -0.019828953 
-0.0056760744 0.39910954 0.14279947 
-0.2503007 -0.026754744 0.0716888 
-0.056764953 -0.268965 0.07853052 
-0.18924446 -0.0479486 -0.20915245 
-0.100949 0.022320367 -0.2559986 
0.25226215 0.07818548 -0.056373898 
0.18781185 0.30503213 0.0064421045 
0.103733584 0.25329998 -0.20212708 
-0.10088551 0.17433676 0.3150078 
-0.13038264 -0.39052603 0.064125374 
0.050907582 -0.04136016 0.24588381 
0.13924359 -0.030566517 -0.27760202 
0.1643741 0.15191227 -0.26352507 
0.16470465 -0.1163331 0.21672997 
-0.024708398 0.07305626 -0.25019765 
-0.28200665 -0.1875447 0.050991286 
0.12607743 -0.3080027 -0.10064428 
0.25079325 -0.069543354 -0.2511076 
0.04054408 0.41278985 0.086210825 
0.24034224 0.13356362 0.08766042 
0.09630478 -0.30055764 -0.024977228 
0.28200853 -0.013038221 0.06010848 
-0.11995839 -0.018153455 0.2661729 
0.1004543 0.26956838 -0.18938081 
-0.23111136 0.11751057 -0.07731354 
0.12651977 0.14854933 0.16540119 
0.3216132 0.052466717 -0.356594 
-0.036040355 -0.35569817 -0.081185095 
-0.19123745 -0.21928112 0.18265778 
0.24047357 0.11773852 -0.04207673 
0.048704635 -0.3010389 -0.06508031 
0.008945422 0.22543855 0.26104227 
-0.33267972 -0.04461237 0.3671387 
-0.26057076 0.041397117 0.25247616 
-0.05592218 -0.34385502 -0.17810015 
-0.15744565 -0.29680732 0.18217827 
-0.058999225 -0.15568204 -0.21195891 
0.16766411 0.4139806 0.04423967 
0.012320618 0.03637936 0.29503244 
-0.015318966 -0.34976482 -0.22135912 
-0.2835244 0.009839581 0.3615812 
-0.10056143 -0.0739766 -0.2553633 
-0.2584721 -0.07151887 -0.10212022 
-0.16347076 0.18514998 0.2175041 
0.0010315517 -0.09109464 0.23529124 
0.14554639 0.08253557 0.22090404 
0.1563165 -0.21506867 -0.25324535 
-0.28282353 0.022439025 0.30114913 
-0.0027780435 0.18202177 0.24482928 
-0.21835677 -0.19885074 0.050775185 
-0.24531107 -0.078516915 -0.10550227 
-0.2175691 -0.19701475 0.18244946 
0.018897044 -0.101480946 -0.29431307 
0.00557715 -0.28201032 -0.26487625 
0.006800213 0.14052856 -0.21647157 
0.22499026 -0.12006499 0.20928413 
-0.057301983 -0.42957395 -0.1087623 
0.063364334 0.336693 -0.00484004 
0.10742724 0.28944692 0.07668604 
0.043007344 -0.1483746 -0.2651124 
-0.24451679 -0.20417888 -0.010714381 
0.15118997 -0.029797655 -0.28235483 
-0.19983728 0.04927839 0.31366122 
0.23592998 -0.12293156 0.14107314 
-0.14111939 -0.38907042 -0.0176215 
0.08896839 0.20818092 -0.20878756 
0.029842917 0.055450972 -0.29235628 
-0.27495933 0.08931095 0.095636584 
-0.08772526 0.15712103 -0.1939154 
-0.021182159 -0.36688557 -0.205983 
-0.05707086 0.23342927 -0.11325908 
0.030893683 0.06421999 0.27410722 
-0.10241962 -0.21757202 -0.14447741 
-0.12629801 0.025941923 0.26497716 
0.034520313 -0.14149432 -0.3093291 
-0.16826986 0.1554132 -0.1758734 
0.15978624 0.2500503 0.03464728 
-0.08143825 -0.2953112 -0.15143625 
0.24670357 -0.06361913 -0.03612853 
0.07649245 0.3135709 0.09830814 
-0.0714682 0.27615777 0.031747166 
0.023972217 -0.31779495 -0.15032631 
-0.111746274 -0.3123992 0.097958565 
0.06306862 -0.078278124 0.24762487 
-0.054827496 -0.24152766 0.116899736 
-0.17718957 0.045157686 -0.24665767 
-0.2522716 0.09945736 -0.18353 
-0.16037609 -0.25435713 -0.032802466 
-0.15646854 -0.21281904 -0.07270666 
0.044042807 0.25931513 -0.16450052 
-0.012831697 0.18800262 -0.16880482 
-0.18219574 -0.22449636 -0.009765956 
-0.045428805 -0.18498431 -0.21993229 
-0.046440393 -0.3358882 -0.03710743 
0.10917066 -0.17263314 -0.25390327 
0.051056206 0.21618196 0.2251956 
0.26661533 -0.053329233 -0.3353626 
-0.24413925 -0.10306148 0.24844868 
0.16349392 -0.0442382 -0.28766054 
-0.0166467 -0.3689243 -0.16062038 
-0.2470731 -0.017608246 -0.084377274 
0.0013843488 0.13171922 -0.2551299 
-0.26892763 -0.13564098 0.053111747 
-0.08611927 0.3161834 0.15073551 
-0.25870046 0.0797665 -0.13564923 
0.12310092 -0.2907744 -0.13592617 
0.24183589 -0.076750115 -0.3231979 
0.15493953 0.22865725 -0.1517222 
0.09297818 0.24801753 0.18376882 
-0.1386729 0.13652962 -0.22615281 
0.004295542 0.26958957 -0.09787576 
-0.24868305 0.09107478 0.31990722 
-0.22200161 0.20852838 0.13182037 
-0.14692628 0.04127739 -0.24111745 
-0.25852406 0.115717605 0.10983052 
0.06458651 -0.28673622 -0.16247757 
0.24573597 -0.11862064 -0.31329766 
-0.026253743 0.2113728 -0.14580274 
-0.20836145 0.15730911 -0.0028369618 
-0.026746366 0.41342452 0.14088376 
0.053750426 0.2718903 -0.14331698 
0.07319884 -0.24132864 0.072170675 
-0.16206466 -0.25781915 0.20148876 
0.28065953 0.012387754 0.052645233 
-0.27756217 0.08798792 0.0846251 
0.0068854783 0.27377707 -0.10506513 
-0.14560607 -0.008899168 -0.23025902 
-0.11404139 -0.4383503 -0.035950206 
-0.07715417 -0.4144175 -0.12941428 
-0.24967378 0.11642628 -0.115505934 
-0.2008876 -0.19772707 -0.06685874 
0.29046062 0.12193687 -0.12707357 
0.13709532 -0.21098906 0.05691709 
-0.1625899 -0.0933946 0.24725536 
-0.03525472 0.061959676 0.26443633 
-0.054264966 -0.3394614 -0.18146658 
-0.13052133 0.21971218 0.014301529 
0.15612656 -0.29891276 -0.1333023 
-0.22375217 -0.08245584 -0.120148994 
-0.111248694 -0.06133122 -0.24779558 
0.2793178 -0.09310278 -0.32399774 
-0.1505214 0.21157406 0.038019754 
-0.045415584 -0.07940693 0.2507382 
0.031374373 -0.3008248 -0.09616778 
-0.16648072 0.22038515 -0.019594708 
-0.30465144 -0.07424267 0.22141947 
0.011791793 0.16732508 0.23064914 
-0.1659911 0.012375675 -0.24327427 
0.06669091 -0.22016235 0.11855779 
0.3272297 0.034551036 -0.34983596 
-0.16503513 0.111268476 -0.22092818 
-0.12546317 0.19878241 -0.11788143 
0.24786013 -0.09726751 -0.25112092 
0.058025077 0.031768348 0.26180074 
0.18842347 0.3034877 -0.09259007 
0.2061035 0.052636188 0.18152401 
-0.2553574 -0.1526633 0.007977323 
0.092692256 0.22040984 0.1996914 
0.23680004 0.21244457 -0.13985896 
0.16274258 -0.029959776 -0.28733456 
-0.26298708 0.04795251 -0.09703542 
0.12735495 -0.23582941 -0.23919733 
0.0856542 -0.27031547 0.011466662 
0.07464462 0.419579 0.0684464 
-0.28628376 0.0015973678 0.014957974 
-0.25462225 0.102536365 -0.21183056 
-0.109902725 0.24588206 0.20522839 
-0.019537624 -0.13553967 -0.25340903 
-0.33017763 -0.098749526 0.29098117 
-0.026757587 0.40349764 0.13078105 
-0.2664027 0.02343881 0.0047692973 
0.09934397 -0.2671561 -0.017674942 
0.11926652 0.33814037 0.06468109 
-0.22442545 -0.15566792 -0.06395676 
-0.15861775 -0.36637396 0.06241559 
0.22835004 0.07814357 0.09702776 
-0.20738612 -0.20885636 0.037310187 
0.11264068 0.3087762 -0.058791198 
0.08968447 0.23297308 0.20880651 
0.013821012 -0.15993099 -0.28730622 
0.25889733 -0.043711632 0.027024616 
0.08589706 -0.22998467 0.06731994 
-0.259278 -0.05064066 -0.018137999 
0.25063995 -0.043444734 0.19751722 
-0.17979905 0.09923281 -0.2303306 
0.21329676 -0.10478474 -0.17215973 
0.26037902 -0.0043340605 -0.15009531 
-0.21821223 -0.14515352 0.21441168 
0.25294772 -0.034302253 0.18988842 
-0.20965496 -0.16836505 -0.09906271 
-0.17546515 0.27025023 0.14023109 
-0.13138801 -0.31134126 -0.06336926 
-0.2354226 0.13893706 0.121290274 
0.19430019 0.32645538 -0.06698021 
0.14411986 -0.27800795 -0.110925734 
0.07434851 0.4020529 0.05196153 
0.14572857 -0.10802653 0.2239908 
0.058331903 -0.29385948 -0.117003955 
-0.059770405 -0.004406027 0.29112408 
-0.13609941 -0.057857763 0.2626167 
0.12541792 0.25473848 0.07877024 
-0.30767936 -0.008238786 0.37156814 
-0.205318 0.1785586 -0.035915423 
0.011566428 -0.04606211 -0.2869617 
0.20918432 -0.19656119 0.027073637 
0.2743687 -0.0861416 -0.07939162 
-0.08390026 0.20093364 -0.16145372 
0.057994768 0.32075852 -0.018013546 
0.109660015 0.07663066 0.25277933 
0.24909587 0.07070203 -0.00332317 
0.22940753 -0.0633166 -0.20089777 
-0.15683624 0.20263472 -0.05961957 
0.23405206 -0.064854145 0.22175632 
-0.142249 0.11112586 0.3071001 
-0.2434083 -0.14318004 -0.015426655 
-0.2740454 0.024357527 -0.10031655 
0.15037869 0.40612978 0.020593878 
-0.24509422 0.019682763 0.12476682 
0.25220498 -0.14338888 -0.29893613 
-0.13882388 -0.27411985 -0.06423199 
-0.108977735 -0.41085804 -0.0740668 
-0.09730689 -0.38781643 0.0032784871 
-0.021790197 -0.32058844 -0.056506988 
-0.097848125 -0.14067388 -0.18938002 
-0.09527409 -0.1749203 -0.17118621 
-0.026350005 0.19224381 -0.16089518 
0.12973152 0.24523212 -0.2028603 
0.27387473 -0.052498713 -0.08201452 
-0.04557566 0.14317295 0.25693944 
-0.16899297 0.17988448 0.228754 
0.2569062 -0.12022062 -0.08115163 
-0.22777222 0.07846205 -0.228329 
-0.15136483 0.2831603 0.12648545 
-0.27810612 -0.048388954 -0.027894132 
0.23885241 0.10063824 -0.014466616 
0.16893572 -0.1875508 -0.07163805 
0.16229461 -0.20231959 0.09181598 
-0.06437261 -0.045264386 0.3083873 
-0.05869913 -0.22410439 -0.1971268 
0.2587333 0.032320883 0.076731235 
0.23341402 -0.11745511 0.07527768 
-0.14590424 -0.35103965 0.12712596 
-0.13429937 -0.39712998 0.066329636 
0.28616995 -0.030922296 -0.11889169 
0.24919964 -0.03711665 -0.011961123 
-0.03108855 0.2783422 -0.08658312 
0.10937411 0.24486288 0.16921097 
-0.16044533 -0.06784908 -0.19015427 
-0.023740357 -0.045847382 0.26093572 
-0.11540582 -0.32918826 0.08832811 
-0.11048524 0.29504278 0.0948116 
0.11393957 0.3686035 -0.0036227107 
-0.024887353 0.22119352 0.28472498 
0.064306095 -0.025080755 -0.26377928 
0.23155814 0.16850011 0.09936616 
0.2028005 0.29629543 -0.10011115 
0.0103195775 0.26326644 -0.070737414 
0.008015226 0.19948742 0.24574967 
0.18486919 0.05560978 0.21794988 
0.13139229 0.21425319 0.17279248 
-0.16101593 0.15284988 0.3498035 
0.0834783 0.43863568 0.080886446 
0.07511291 -0.2840551 0.026945252 
0.13977054 -0.29155126 -0.10533544 
0.22116816 -0.18779781 0.003181516 
-0.14299151 -0.31670916 0.15158656 
0.24620445 0.016069511 -0.17816837 
-0.17109285 -0.03239327 0.25825876 
-0.10945984 -0.3157778 -0.100820065 
0.01917463 0.22470367 -0.16372508 
-0.084102824 0.26139373 -0.05106713 
-0.16348696 0.20237555 0.044779994 
-0.27462822 0.028636683 0.2823975 
-0.124352716 -0.13169624 0.279296 
-0.1761837 0.17926867 0.017757986 
-0.19626622 0.16710795 -0.09404244 
0.117445946 0.37868515 0.07229296 
-0.21221106 0.0036065925 0.29396683 
0.15926427 0.1614513 0.14079516 
-0.24863566 0.018228237 0.33451766 
-0.10995635 0.080434375 -0.24725781 
-0.23903337 0.109023206 -0.06255858 
-0.039220132 0.020994863 -0.24891353 
-0.13322097 -0.24020989 0.2054042 
0.13378492 -0.22835922 -0.062626064 
0.16292855 0.19457768 0.14582914 
0.16873778 -0.1590234 0.1820531 
0.29161364 -0.09865459 -0.32128787 
-0.06265679 -0.15549783 0.20448172 
-0.059312697 0.2699202 0.20575821 
-0.08007582 -0.45278054 -0.08240572 
-0.2063409 -0.080517754 -0.1466425 
0.18179047 0.052123405 0.2176345 
-0.0391618 -0.17386104 0.18743682 
0.19120266 0.3564263 0.013568775 
0.256492 -0.0968847 0.18247505 
0.06502447 0.37070373 0.027836895 
0.10810952 -0.26573738 -0.18716161 
-0.13506371 -0.3426183 0.11347926 
-0.26913467 0.048477553 0.36243483 
0.056406643 0.34468794 0.007666494 
-0.05155424 0.050203394 0.26717296 
-0.1613042 0.21966255 -0.04512178 
-0.15394847 0.19819772 0.22408248 
-0.2399863 0.07738519 0.24891667 
0.3055089 -0.056946695 -0.32838184 
-0.23630805 0.1617399 0.10225159 
-0.26017755 0.039236087 0.24620405 
-0.14505261 -0.37192237 -0.014902242 
0.047863875 0.2919183 -0.04356637 
-0.059069857 0.21530986 -0.12461594 
-0.2723193 0.027062887 -0.10875896 
-0.17363048 0.18197234 0.15485746 
0.22435647 -0.16259415 -0.28738096 
0.2352246 0.27241042 -0.0903212 
0.25675926 -0.06382483 0.1443054 
0.014856667 -0.29887557 -0.028568162 
-0.056609735 -0.18878186 0.175102 
-0.22029859 0.14809315 0.06431126 
-0.24189965 -0.06968073 -0.02606801 
-0.17349966 0.15329327 -0.1925633 
0.2942347 0.0175285 -0.10447425 
-0.18124558 -0.2935901 0.13301909 
-0.023021346 0.24923813 0.2254895 
-0.18650262 -0.26756477 0.15142192 
0.17586902 -0.23687857 -0.15815112 
0.20257111 0.185838 -0.24910977 
-0.12866078 0.26237246 -0.04775611 
0.14907292 0.21914901 -0.19894423 
-0.058177736 -0.15697533 -0.21244107 
-0.076000586 0.120900646 -0.21841809 
0.22282033 -0.1863343 0.0003431959 
-0.24825792 0.002685953 0.10772936 
-0.07866708 0.20057483 -0.13508722 
-0.05869344 0.2366579 0.24834412 
0.27823284 -0.03928639 -0.28991362 
0.24296825 0.15211484 0.08944938 
-0.2770299 0.051339906 0.3390191 
-0.23580258 0.09574966 -0.22725926 
0.20195958 -0.14613356 0.17360333 
0.31575513 0.07901607 -0.3415062 
-0.082777955 0.24121802 0.23740286 
0.101978675 -0.2422866 0.004481811 
-0.062455744 -0.15809517 0.20235021 
-0.18778302 0.01092303 0.282118 
-0.2524951 -0.15065719 0.19028568 
-0.19613628 -0.16020237 -0.122499175 
0.21283765 -0.16318423 -0.06078015 
0.17062268 -0.20052454 -0.0065931613 
-0.09887228 0.26522893 -0.06758372 
-0.24636637 0.0449454 0.35255206 
0.06646961 0.37710637 0.033095144 
0.17308559 0.35492167 -0.044682447 
-0.20760095 0.14970161 0.1332209 
0.18305342 0.10587372 0.13802925 
-0.03421073 0.38452286 0.14639728 
0.12157939 0.0864561 0.23273522 
-0.0997565 -0.42704314 -0.024318332 
0.028035156 0.07058998 -0.2744567 
-0.18490334 -0.10943659 -0.13746715 
-0.24178831 -0.079260506 -0.1190333 
-0.22584963 -0.12002477 -0.05031246 
-0.25481793 -0.008533266 0.12887979 
0.24908862 0.051172525 -0.037278112 
0.07617194 -0.30396724 -0.07235965 
-0.13681696 -0.406607 0.026481226 
-0.024492925 -0.18938707 -0.24278426 
0.10859372 -0.26985034 -0.03956367 
-0.2589382 0.08687782 -0.2043047 
-0.03787692 0.3862139 0.14712358 
-0.27146152 0.039848108 -0.093974546 
-0.1002816 0.27417696 0.06013541 
0.091714986 -0.09251917 -0.26171663 
0.019880284 0.23128892 -0.16133907 
-0.19337703 -0.22432245 0.019668262 
0.056091085 0.09924216 0.23961467 
-0.18113351 0.22115669 -0.021712808 
0.23632255 0.14833114 -0.30063665 
-0.09101133 0.0672372 -0.2674534 
-0.31405026 -0.07101454 0.32495105 
-0.13704157 0.21469736 -0.06737715 
-0.03740342 -0.14183769 0.20946257 
0.27053902 0.109375484 -0.0809815 
-0.0866331 -0.42982677 -0.109076515 
-0.21989445 -0.09891034 0.23988502 
-0.03769852 0.22727895 0.28991184 
-0.1381025 0.045475785 0.27250314 
0.18205564 -0.26331148 -0.1934568 
-0.14432025 0.19675134 -0.11671395 
-0.21636246 0.17579353 0.13317475 
0.19365968 0.10715304 0.12352997 
-0.15910472 0.099462084 0.31336185 
-0.15126812 -0.35374495 0.12816738 
0.21003525 0.19048911 -0.18916367 
-0.060936872 -0.23844197 -0.19169174 
0.24074136 0.31519133 -0.031195348 
-0.1551812 0.19502395 0.18445516 
-0.10848734 0.019726045 0.26471323 
-0.021874953 -0.23091061 -0.24063116 
0.27073294 0.078937806 0.05492754 
0.064393505 0.27197415 0.13128424 
-0.03057806 -0.24757567 0.1103154 
-0.22719719 -0.09118222 0.2472099 
-0.14626515 -0.26851016 -0.053160775 
0.063287854 0.2759122 -0.07161509 
0.0003899295 0.12774937 0.23519786 
-0.17786676 -0.2534207 0.0065103914 
0.087581374 0.03427246 0.24818349 
0.12984277 -0.14551578 -0.2668807 
0.060627215 0.10028479 0.23785868 
0.0026481345 -0.18097909 -0.2737618 
-0.073664024 0.25083798 -0.008008239 
-0.13825059 0.24933897 0.15191483 
-0.07119121 -0.20300329 0.16608857 
0.19588134 0.2870275 -0.0022288824 
-0.06382961 -0.27201363 -0.18153049 
-0.106634974 -0.09146195 -0.24576968 
-0.1127009 -0.06577062 0.2791634 
-0.07316912 0.19687846 0.30746254 
-0.048133142 0.29739508 0.035355993 
-0.28590366 -0.10781149 0.2531413 
0.1403912 0.40638798 0.01786993 
-0.04915835 -0.4270345 -0.12285666 
-0.12772016 -0.16442668 -0.15792705 
0.19211793 0.18650651 -0.2027105 
-0.25848025 -0.041241027 -0.07175201 
-0.091426566 0.15317254 -0.19455805 
-0.028210001 0.4139096 0.14263202 
-0.05489525 -0.28664634 -0.1907709 
-0.071216255 0.2578453 0.21863279 
-0.20688203 0.08959705 0.34873396 
-0.06939647 -0.24702765 0.11602253 
0.21294338 -0.13087577 0.20067151 
-0.19708197 -0.19817074 -0.047698703 
-0.029269928 0.14356995 0.24815801 
-0.024657615 -0.14058456 -0.24789634 
0.1601778 -0.20732076 0.036875386 
0.13005564 -0.11402312 0.22237857 
-0.14851812 -0.35387644 0.12974918 
-0.07618509 -0.4610398 -0.118989706 
-0.18586777 0.16839413 -0.08070471 
0.22754952 -0.07201391 -0.15893653 
0.14268675 -0.09433485 0.23563883 
-0.24848074 -0.15522587 -0.009569516 
0.05583518 -0.26271614 0.08864686 
0.12811099 -0.13507834 -0.26754573 
0.20659432 0.15457396 -0.28432986 
-0.31213763 -0.060715977 0.264862 
0.24781135 -0.10129765 0.22377586 
-0.17869084 0.21024446 -0.01633341 
-0.17457724 -0.17202972 -0.16818574 
0.055007905 0.25189137 0.20454253 
0.14245254 0.06725297 -0.26987046 
0.0630914 -0.23803687 -0.22079591 
0.31268063 0.073570415 -0.117341965 
-0.13886936 -0.35812217 0.107491694 
0.10101206 -0.26814908 -0.18469802 
0.18211484 -0.056195956 -0.2955942 
0.016376005 0.04089124 -0.2876119 
-0.072068885 0.21927512 -0.11328777 
-0.24885806 -0.046980083 0.017287865 
0.2546816 -0.037713256 0.010562502 
-0.075740255 -0.28438514 0.07464522 
-0.09582816 -0.40684545 -0.015462251 
0.020291552 -0.22924381 -0.26497683 
0.2961479 0.059224594 -0.10533826 
