0.15653284 -0.31902742 0.19063333 
0.13580993 0.06446088 0.25861424 
-0.23012975 0.24791886 0.25009686 
-0.113746 -0.1975956 -0.2895394 
-0.25894523 0.39000306 0.2165152 
-0.09545596 -0.053701665 0.26653117 
-0.10734266 -0.10054873 0.12867081 
-0.26805234 -0.4584949 -0.051505648 
0.35502255 0.18850419 0.17413174 
-0.05062723 0.3511965 0.3242162 
-0.24510443 -0.08710161 0.089123875 
0.20304777 -0.13587636 0.04642483 
0.048903815 -0.019261912 0.2783953 
0.2712829 -0.4090233 -0.035596732 
-0.16548012 0.005657638 0.2575562 
-0.22952567 -0.055525344 0.07524079 
-0.2837114 -0.27823073 -0.13247558 
-0.311017 0.1803756 0.2453165 
0.29709294 -0.1370155 0.009653952 
-0.18011336 -0.08309188 -0.16902111 
0.18566875 -0.25633714 0.15876283 
0.0987071 0.18783331 0.28747553 
0.15836613 0.3926843 0.25712842 
0.22048157 -0.14185873 -0.100207984 
-0.3158205 -0.15091707 0.07734219 
-0.14160393 0.27628183 0.30270153 
-0.2257923 0.44030237 -0.160392 
-0.09666264 0.031704497 0.28968918 
0.16342698 -0.094800495 -0.18920796 
-0.16341871 -0.41729072 0.1535849 
0.106140934 -0.14142199 0.1717752 
0.18895784 -0.3633376 -0.24136195 
-0.26725015 -0.35758936 -0.16421923 
0.09281929 -0.0585608 0.24749303 
-0.2770589 0.22525388 0.27372026 
0.16705902 0.16763343 0.23048073 
0.04882482 -0.030255096 -0.22290185 
-0.106698796 0.25633937 0.3157813 
0.18290043 0.15712602 -0.17247368 
-0.28817344 -0.36218497 -0.052406117 
0.23677775 -0.38624576 0.06728633 
0.24733093 -0.44212297 -0.013684072 
-0.071288615 0.31742975 0.32152945 
-0.25185674 -0.18206035 -0.14373192 
-0.076273665 -0.2782007 0.22737397 
0.32166776 -0.25795057 -0.12917417 
-0.18536706 0.41347703 0.2860644 
-0.2537118 0.04718916 0.086422004 
-0.13986596 0.34263492 0.30397713 
0.13722147 -0.054118972 -0.16631971 
-0.27615988 -0.09394051 0.06908727 
0.12739395 0.44479215 0.28054154 
-0.014104784 -0.035428435 0.27912307 
0.21301788 -0.2629266 0.13902669 
-0.07357215 -0.28037992 0.22819933 
0.044784028 0.31855386 -0.23475818 
0.23310818 -0.18313195 -0.14493285 
0.20685166 -0.3461537 -0.2453394 
0.28270435 -0.08840157 -0.051580764 
0.053337514 -0.13677837 0.1856203 
-0.1653563 0.16337179 -0.22920513 
0.3079328 0.2637903 0.16480367 
0.013240078 0.055711176 -0.25036758 
-0.25908178 -0.23651625 -0.18230374 
-0.26890182 0.38646334 0.20046385 
0.12068614 0.13905661 -0.22545302 
-0.30116248 0.4253187 0.13174781 
-0.23862603 -0.34972495 0.09437647 
-0.1706738 0.16232796 0.27198666 
0.14511517 -0.07107304 0.13279851 
0.09321498 -0.3234947 0.22155802 
-0.025910579 0.30478063 -0.24706522 
0.21221568 0.4070414 0.14330414 
0.21172565 0.3087436 -0.11153943 
-0.0406196 -0.07914188 0.2551548 
-0.05650304 0.4576514 -0.24016193 
-0.36087358 -0.30431616 0.04334784 
0.24940586 0.43054014 -0.014809888 
0.17563035 0.09261372 -0.1625676 
-0.20443681 -0.022110237 0.20039651 
0.14946987 0.11998687 -0.20038918 
-0.038032897 0.14218362 -0.26822764 
-0.30764613 0.4415811 0.03561873 
-0.077859305 -0.3318244 0.22588815 
-0.12202392 0.17213222 0.29288572 
0.21489617 0.0049302536 0.12424358 
0.34030825 -0.20966989 -0.00595496 
-0.19089766 -0.11624156 0.109310254 
0.30280668 0.3006323 0.055279754 
0.19743462 0.42642257 0.22183605 
-0.21966435 0.2320512 0.2591396 
0.18013588 0.22215462 0.2339704 
0.2525186 0.25003132 0.18705389 
0.0652039 0.4300351 0.285299 
0.1721919 -0.17987886 -0.24121262 
-0.06576325 0.27111968 0.3210641 
-0.35939223 -0.22798619 0.050326712 
0.092931405 -0.43019798 0.16457878 
-0.058384348 0.057489082 0.32282013 
0.024615057 -0.34792095 0.23516354 
0.2640961 -0.38721982 -0.032669976 
-0.2820537 0.1968864 -0.09397889 
-0.027191551 0.15843551 0.29345638 
0.14210072 0.21032271 0.2682194 
0.23192026 0.1885342 -0.09075259 
0.3625928 0.17600441 0.16048865 
0.055437528 -0.38564166 0.2205151 
-0.22949864 0.22722147 0.24785303 
0.07468834 0.40670523 0.3072039 
-0.2209476 -0.1592385 0.107283965 
0.1853363 -0.053458903 0.07231403 
0.34388328 0.21216425 0.0763666 
0.13228895 0.30567664 -0.20128964 
0.20384021 0.064060904 -0.086100005 
-0.24259877 0.059583884 0.14630602 
-0.20447883 -0.31044486 0.14135297 
0.21192302 0.1951094 0.18827681 
0.21409924 0.25449032 0.18762413 
-0.060927533 -0.45086613 0.18829972 
-0.067178555 -0.30497053 0.23019539 
-0.061356027 -0.04057618 -0.22980607 
-0.25849572 -0.36849526 -0.15326244 
0.19849946 0.45196995 0.1750922 
0.23805422 0.3305111 -0.002877972 
-0.13353615 0.24531041 -0.23716006 
0.3347251 -0.20712896 -0.1224953 
0.21763672 0.076373085 0.09362622 
-0.29493022 -0.26667798 -0.06186151 
-0.24724615 -0.4418933 0.030815916 
-0.21378104 -0.14788687 -0.18147838 
-0.27634525 0.08846689 -0.022238996 
0.10961171 -0.46510464 0.14698114 
0.19541071 0.27579558 0.21187773 
0.25454774 -0.34895575 0.05595488 
-0.14104187 -0.1930788 0.17674291 
-0.3542571 0.18348086 0.16872846 
-0.31007224 0.3555497 0.115538426 
0.22492182 0.23934753 0.17891164 
-0.0055928924 -0.01605505 0.28628194 
-0.19218014 0.324976 -0.17382394 
0.07972682 0.4459208 0.299865 
0.13121359 0.23987283 0.28069913 
-0.20401505 0.15852632 0.25105 
-0.038872622 0.36804122 -0.23716006 
0.21760747 0.46542498 -0.0929291 
-0.20511441 0.2094192 -0.20061453 
-0.10452332 0.32328376 0.31583393 
-0.19546025 -0.13074496 -0.190484 
-0.22324462 -0.013521895 0.16651484 
0.13292305 0.2054082 -0.2205009 
-0.2835711 0.17642689 -0.0850493 
0.20287667 0.08292952 0.19342497 
0.16783871 0.1486305 -0.18875727 
0.049355052 -0.45363745 0.18487738 
0.08677404 0.38881966 0.26861745 
0.13581744 0.27945837 0.26983303 
0.048887745 -0.028921671 0.27433538 
0.18389024 0.15952362 -0.17112252 
-0.37221244 -0.28180647 0.012955829 
-0.30609727 0.27349553 0.013706068 
-0.26686516 0.40429938 0.12777035 
0.18849783 -0.11908041 0.06360933 
0.16219178 0.17474669 0.23943323 
-0.25545275 0.36661467 0.1462309 
-0.20200843 0.14558004 0.24557163 
0.15405795 0.004975204 -0.13502769 
-0.23386459 -0.18002445 -0.18538073 
-0.15863027 0.067740224 -0.2142718 
-0.33634377 -0.21187763 -0.026891578 
0.1857828 -0.43573385 0.1087849 
-0.22676037 -0.4030657 0.08417083 
0.09947666 -0.43610457 0.17768873 
0.24137709 0.34253812 0.1356497 
-0.28128004 0.43494663 0.16517146 
-0.22217076 -0.10923487 -0.11454131 
0.17011924 0.36167014 -0.16354318 
-0.28073224 0.21449281 -0.10013287 
-0.22731417 0.1513958 -0.17615068 
-0.22933656 -0.22944202 0.09355111 
-0.24320586 -0.11544836 0.1343741 
0.21721874 0.02667209 0.11741448 
-0.12956041 -0.0116007915 0.27304465 
0.1239348 0.4460026 -0.19296007 
-0.33089948 0.23509489 0.243238 
0.16263002 0.31593037 0.23760206 
0.27666646 -0.15727091 0.031416383 
0.13534541 -0.06471719 -0.18650654 
-0.2866568 -0.09077568 0.013330948 
0.2126059 0.32838964 0.17605267 
-0.12514491 0.4101519 0.31419057 
0.094843924 -0.35729748 0.2186015 
0.18477573 0.09650616 0.19004065 
-0.30790052 0.36295635 0.10293139 
0.021371955 0.05984128 0.32917613 
0.22573078 0.15600789 -0.09097794 
0.16824242 -0.31479803 -0.29524267 
0.1566274 -0.004986726 -0.12129437 
0.14494407 0.35078 0.2719115 
0.14541459 -0.33865845 0.19593127 
0.09651474 0.41464394 0.30255866 
0.15647656 0.060836338 0.24454382 
-0.1913239 -0.23570278 -0.27490652 
0.22024594 0.4241233 0.11869053 
0.22287467 0.42434165 0.056780692 
0.26844183 -0.39142743 -0.038072795 
-0.088841744 -0.46434897 0.16848846 
-0.22937031 0.12649229 0.213026 
-0.20265605 0.06518804 0.21377623 
0.28724813 -0.20566864 -0.12024367 
-0.13455072 -0.30021358 0.19699708 
0.03593255 0.39034602 0.31373256 
0.19713669 -0.038722787 0.07201403 
-0.23118486 -0.3623628 0.09512716 
-0.08984431 0.18093167 0.30401468 
0.018380249 0.1004016 0.32540154 
0.010998343 -0.27740076 -0.34326988 
0.21297361 -0.2464766 0.11974078 
0.22702451 -0.29885006 -0.23040606 
0.17868155 -0.17388976 -0.22958072 
0.25264767 0.36039066 0.11133608 
-0.10483174 -0.39519003 0.20245257 
-0.29359972 -0.32935172 -0.05945965 
0.057615817 -0.29112074 0.23354994 
-0.088534825 -0.0056098024 -0.20406617 
-0.30368614 0.16408019 0.25009686 
-0.24376418 0.1676582 0.23608646 
-0.26010388 -0.19151042 -0.114991084 
-0.16373613 0.46352345 -0.19258448 
-0.09149824 0.33540985 0.31655443 
-0.043848675 -0.13402806 -0.28833842 
-0.13230921 0.22736782 -0.24038635 
-0.017818773 -0.41347784 0.2124782 
-0.22859362 -0.13124776 0.11441307 
-0.3218426 -0.16587974 -0.022539457 
0.035945307 -0.27149868 -0.34109336 
0.24366963 0.2633378 0.1798648 
0.22957745 -0.42436194 0.03794502 
0.21468307 0.18085589 0.17984234 
0.080277406 0.19799477 -0.24991687 
0.23239529 0.32257766 -0.050154485 
0.006533779 -0.4660449 0.18203352 
0.149695 0.12630469 0.22126535 
-0.22400855 -0.30181724 0.11051073 
-0.13360669 -0.15154518 0.18349689 
0.09269532 -0.052423846 0.25166512 
0.1894036 -0.020265933 0.19696686 
0.26926354 -0.37743655 -0.06929062 
0.13367873 0.20581792 0.27155882 
-0.07602152 0.26574588 0.32040405 
0.20670007 -0.20690833 -0.21584831 
0.22044331 -0.38944557 0.09452669 
0.27171516 -0.14123814 0.029090092 
0.12557536 -0.1177289 -0.22830467 
-0.33381033 0.23427618 0.06998774 
0.024579488 -0.4292457 0.18192863 
0.16697271 -0.21429999 -0.26785207 
0.19610035 0.044541966 -0.08955166 
0.14956592 -0.069532275 -0.16872157 
0.24369964 0.2910749 -0.033044636 
-0.12211771 0.25640014 0.31137645 
-0.25754568 -0.35152972 -0.2000136 
-0.2956844 0.44464734 0.09317599 
-0.30059364 0.33704728 -0.019912247 
0.29089895 0.26743436 0.1924045 
0.17328452 -0.13139184 0.10585815 
-0.13605306 -0.29106295 0.2068198 
-0.07168333 0.048531815 -0.24181263 
0.0131260175 0.36342537 0.28694242 
-0.16441151 0.23312503 0.2954222 
0.2562227 -0.42848703 -0.117242716 
0.27450898 -0.31876928 -0.08234789 
-0.23843694 -0.11904063 -0.08947654 
-0.07017574 0.26261064 -0.25216848 
-0.32347476 -0.2070464 -0.03829814 
-0.25272423 0.30106378 -0.12729812 
0.013855653 -0.19747777 0.2221736 
0.23568137 -0.07331996 0.03329244 
0.19570114 0.033890177 0.20679003 
-0.15530889 -0.28562388 0.19982582 
-0.21977468 0.28291857 -0.17179856 
-0.23386912 -0.021971785 0.08417083 
0.06314579 -0.1953038 -0.3160295 
-0.28792503 -0.24111034 -0.03529627 
-0.36715835 -0.24109156 -0.008356366 
-0.029006818 0.14537892 -0.26845205 
-0.08180653 -0.33325168 0.22333652 
-0.14438349 -0.2988583 0.19795755 
-0.10684813 -0.31157497 0.21114215 
-0.11653307 0.09074067 0.2634468 
0.33417132 0.2000952 0.18469737 
-0.22574127 -0.15458664 -0.16496946 
-0.12078796 0.06444662 0.27483827 
0.14000028 -0.08628718 0.111711204 
-0.004162964 0.32042316 0.27906305 
0.007351065 -0.37201625 0.23120853 
0.18854961 -0.043413375 0.033517327 
0.19515258 0.069920205 0.19327474 
-0.039548755 -0.44794098 0.19364253 
0.161692 0.32028735 -0.17284834 
-0.1478452 0.21579705 0.2993319 
-0.029006068 0.36910906 0.3249889 
-0.36772418 -0.26786965 0.052052993 
-0.2831253 0.2061151 -0.09180329 
-0.029246958 0.30481288 -0.2474408 
-0.2711013 -0.086277194 0.072539374 
-0.05888263 0.23963271 0.32324058 
-0.35375732 0.2576736 0.12199241 
-0.3044013 0.3949063 0.13587503 
0.13751039 0.15365158 -0.2152474 
-0.016340965 0.3558146 -0.23731028 
-0.036675386 0.31539235 -0.24256288 
0.2044323 0.44849324 0.21036215 
-0.34132057 -0.18841343 -0.018111307 
0.19139896 0.19203192 0.213386 
-0.21581393 0.025938326 0.19822 
0.17291906 -0.3072758 -0.29186612 
-0.28845334 -0.33069277 -0.10508591 
0.061766513 0.32868308 0.30691123 
0.32088736 -0.28438568 -0.0019023864 
-0.15366173 0.23217125 0.30009723 
-0.05476807 0.384543 0.32532644 
-0.25069657 0.26773 0.23180167 
-0.0008768641 0.38755667 0.32303768 
-0.2047182 -0.41085133 -0.1725488 
0.21553706 0.12162205 0.12762058 
0.18086153 0.27807683 0.2297305 
0.2375897 -0.3192878 0.10158069 
0.25348514 0.30451572 0.18559052 
0.32811314 -0.15941185 -0.07979672 
-0.073857315 0.40141624 -0.23025584 
0.1792864 -0.12689906 0.09632763 
-0.2927885 -0.17887856 0.10916002 
-0.32869548 0.18937467 0.2191044 
-0.28114346 0.3951022 0.061508387 
0.2627371 -0.16817379 0.028339393 
0.12957993 0.0973684 0.24915107 
0.2359643 0.24160106 0.17725316 
0.04751068 -0.26267746 0.23354994 
0.06388465 0.21103337 0.3081268 
0.21695384 0.20781855 -0.12707277 
-0.21031035 -0.3216194 0.13482434 
-0.06474868 -0.1700746 -0.30574876 
-0.24552843 -0.16030785 -0.050154485 
0.19994701 0.30185923 -0.1357028 
-0.27635127 0.44402596 0.12626942 
-0.039121762 -0.21195717 0.21569763 
0.2888203 0.3355787 0.10758397 
0.33251813 0.23029445 0.07629149 
-0.25052398 -0.11977905 0.112386785 
-0.30836505 -0.2807454 -0.04287561 
-0.2521629 -0.1931471 -0.16436854 
-0.3013636 0.30985123 0.05145253 
-0.21938597 -0.15454535 -0.17457509 
0.20216152 -0.35624236 0.1441295 
0.11194237 0.4415286 0.28806043 
-0.11673794 -0.250306 0.205852 
0.008589937 -0.2531111 0.23595135 
0.18363659 0.1100025 0.18252131 
0.02232927 -0.23721188 0.23274702 
0.24034 0.15638311 -0.022389228 
0.13820828 -0.0947172 0.12289288 
0.20591213 -0.4411714 0.05557976 
-0.35589004 -0.21707356 0.027063804 
-0.20327964 -0.14204709 -0.19205959 
0.29482517 -0.22102003 0.013255833 
-0.22708304 0.44320425 -0.15596385 
-0.20588961 -0.3127404 0.14142808 
0.14593989 0.19773138 -0.21134505 
0.18983808 -0.013820315 -0.041149784 
-0.3058676 0.19987458 -0.008731486 
-0.27815753 -0.2373342 -0.0797216 
-0.24440278 -0.059494548 0.05595488 
-0.04393197 0.37046131 0.32225722 
0.019657241 0.24821155 0.32083142 
0.25848147 0.2480772 -0.017060606 
-0.30282617 -0.30045146 0.08327036 
-0.007717414 -0.011746771 0.2966978 
0.022137087 -0.052338675 -0.23918633 
0.16256398 -0.043921936 -0.106436156 
0.14336742 -0.2399877 0.1898602 
-0.31361648 -0.2638984 -0.045052126 
-0.2102428 -0.16357669 0.10953514 
0.03918053 0.30770278 -0.24038635 
0.24707954 -0.4469279 -0.044751663 
0.1509632 0.122677885 0.21914196 
0.3601149 0.186854 0.16675484 
0.11600763 0.037586756 -0.20008871 
-0.28106242 0.45586166 -0.018637115 
-0.2638132 -0.3944186 -0.0067803147 
0.13616788 0.44968867 0.2717691 
0.21417503 -0.40487272 -0.1936352 
0.17679125 -0.27502567 -0.28241074 
0.2959478 -0.11402031 -0.0797216 
-0.015385225 0.00071528275 0.31448323 
-0.27725703 -0.409755 -0.050680295 
-0.2617826 0.32352993 0.21800882 
0.23242155 0.38221294 -0.06576385 
-0.13897745 -0.06610577 0.2365367 
-0.35289735 -0.26910782 0.07951825 
-0.23882866 0.37673935 0.2339104 
-0.24277887 0.26788235 0.23743716 
-0.2162822 -0.026724584 0.17115231 
-0.332741 -0.15055837 0.03254174 
0.22926001 0.23395503 -0.10253382 
-0.27585074 0.3846578 -0.0866249 
0.06525478 -0.16141474 0.20147699 
-0.12128175 -0.0594887 0.2527383 
-0.3366995 -0.16020504 0.0090534855 
-0.2833482 0.3106519 -0.05218077 
0.098073214 0.4394852 -0.20654224 
0.07308138 0.058140595 0.3173871 
-0.32587537 0.24115232 0.2528885 
-0.01661457 -0.26216042 0.2356889 
-0.25116783 0.44100854 0.190686 
0.19399166 0.26037812 -0.15934129 
-0.2942721 0.42766976 0.1451802 
-0.06779015 0.022998698 0.31777734 
-0.16753778 -0.048999444 -0.1540878 
-0.15145022 0.33991465 0.25645286 
0.18903513 -0.13540359 -0.17795162 
0.18607472 0.45672312 -0.14005493 
0.059873197 0.3884482 0.3086146 
0.2006074 0.18138418 -0.1509366 
-0.17108653 -0.43604 0.13399898 
-0.21655387 0.408549 -0.16444366 
-0.28586662 -0.28740388 -0.12362112 
0.25013527 -0.39272413 0.024587283 
0.041211545 -0.3274907 0.23759472 
-0.21340735 -0.15964824 -0.19461077 
-0.14842151 -0.10796815 0.14375438 
0.10716023 -0.10393238 -0.24443893 
0.21272671 -0.0034194698 0.104282096 
-0.20928453 0.36989552 0.22456722 
0.22290619 0.098602846 0.017308407 
-0.25192428 0.4523752 -0.116116896 
0.2325131 -0.40383413 0.061958626 
0.13579267 -0.15293194 0.16553925 
-0.24305952 0.39232337 0.23802252 
-0.13830133 -0.44492579 0.1562863 
0.121123865 -0.31846762 0.20731539 
0.13339432 0.39140713 0.24299021 
-0.0269229 0.35314083 -0.23655912 
-0.3058466 0.17157766 0.032466624 
-0.13777527 0.07917516 -0.22958072 
0.16072695 0.47913975 -0.15341267 
0.32574782 -0.18103828 0.0009492549 
0.075578935 0.2915289 0.30198842 
0.09458623 0.12988645 0.2648502 
-0.36416268 -0.23285943 -0.01120755 
-0.06460685 0.28861803 -0.24676567 
-0.23472309 0.31781095 0.24367313 
0.09700424 0.21273983 -0.24143705 
-0.29577067 0.24539594 -0.05383148 
-0.2662048 -0.18372853 -0.050755408 
0.099965036 0.18719245 -0.24083705 
0.19442841 -0.17728092 0.10248116 
-0.08986981 0.040472206 0.29269058 
0.21373978 0.14314717 -0.11491597 
-0.26189512 0.064977914 0.07313985 
-0.22150815 -0.43324247 0.07171402 
0.0049744775 -0.31293702 0.2362738 
0.11105064 0.033913065 0.29605246 
0.12785621 -0.010448293 -0.13600327 
-0.0485253 0.15942682 0.3035342 
0.11066088 -0.07843266 0.21788882 
0.026546568 0.15257546 0.29177547 
0.22485654 -0.39247802 0.0850713 
-0.14637361 0.42407075 0.2676267 
-0.01304601 -0.3229544 -0.32255816 
0.18322387 -0.21524628 -0.25209337 
-0.25544974 0.1675674 -0.14290658 
0.08158389 0.3808547 0.26758182 
0.35808274 -0.2691191 -0.03814791 
0.21127164 0.051142007 0.1572619 
0.0054324595 0.1198713 0.32369083 
0.167916 0.37258202 0.24805547 
0.35444546 0.21106863 0.120266125 
0.33395144 -0.1713976 -0.02809251 
-0.36583236 0.23085877 0.12641965 
-0.18210047 -0.2457517 0.15733701 
-0.3146656 0.25748825 0.0668361 
-0.34391028 0.22344835 0.2039384 
0.15072307 -0.45427078 0.1290464 
-0.21976641 0.034723446 -0.12849905 
-0.22637239 -0.12015276 0.114488184 
-0.2753577 0.30007023 0.20206967 
0.27833837 0.25192386 0.19794977 
0.2738516 -0.08164357 -0.01601082 
0.16519421 -0.06276159 -0.120544136 
-0.16515969 -0.20544426 0.15531118 
-0.26621154 0.2672077 -0.1203939 
-0.2690204 -0.2629581 -0.17675069 
0.21128966 0.39953643 0.19996873 
0.055239987 -0.38573322 0.22040243 
0.19725676 -0.2850866 -0.26680136 
0.10484383 -0.4614426 0.1526093 
-0.29456776 0.44976145 -0.029592987 
0.14455386 -0.055232003 0.21636543 
0.17449269 0.41487432 -0.14936009 
-0.13319996 -0.14889844 0.18186818 
-0.0098657245 0.034111027 0.32818586 
0.088804826 0.40232053 0.30153084 
0.33929744 0.20555979 0.053253468 
0.044559464 0.15313002 0.29507732 
0.20926352 0.1048426 0.13595015 
-0.16398603 -0.25962174 -0.2948671 
-0.23000668 0.10294854 0.19173625 
0.25164887 -0.24221344 0.031716384 
0.21961033 -0.17679313 0.046649717 
-0.28057012 0.4152533 0.18370713 
-0.22707179 -0.13868968 -0.13457699 
-0.2970389 0.22911555 -0.051955424 
0.19368926 -0.42495254 0.09542716 
-0.2720408 0.07533 0.009203717 
-0.15183218 -0.044233814 0.24582674 
0.22576004 0.3070754 -0.07949626 
-0.36604324 0.22132841 0.13625015 
0.06858305 -0.21952067 0.21596742 
0.3427359 -0.26353893 -0.00865637 
-0.29207185 -0.3242999 -0.0844493 
-0.046110447 0.32088616 0.3213343 
0.11344825 0.22494018 0.28979403 
-0.15936717 -0.3979013 0.16637239 
-0.19438939 0.33156544 0.27642167 
0.33059555 -0.16125715 -0.061335705 
0.20513694 -0.0063998466 0.1725708 
-0.15317243 0.16859548 0.28092402 
-0.060078055 -0.05947864 0.26809943 
0.17713569 -0.30450225 0.16530658 
0.13883112 -0.32957235 0.20120676 
-0.32237166 0.19630557 0.23718938 
0.23236676 0.13085525 0.015507466 
-0.22155619 -0.34145528 0.11801495 
-0.011032856 0.051944137 -0.2507422 
-0.15153576 0.31989262 -0.20781828 
0.26016542 -0.36493078 0.008828597 
0.18127877 -0.25620055 0.16409099 
-0.043987498 -0.3140514 0.22787689 
-0.24109343 0.43723768 0.21968196 
0.074230276 0.08342405 0.31612664 
-0.17201105 -0.3563662 -0.25299382 
-0.23813376 -0.30858904 -0.23776005 
-0.2982996 0.36796695 0.14270368 
-0.004516939 0.1695125 0.3079995 
0.07447679 0.32680628 -0.22275162 
0.3122372 0.28304687 0.11673936 
-0.032199115 -0.325373 0.23054074 
0.048079252 0.40711272 -0.2278549 
-0.1524813 0.34996128 0.29990214 
-0.16395152 0.17301697 0.27897286 
-0.14105012 0.08327922 0.25949228 
0.18293871 -0.21601245 0.14502996 
-0.13101172 -0.3656429 0.19915803 
-0.25636753 -0.0464333 0.06608585 
0.3332558 -0.21815191 0.0038755538 
-0.08138704 0.36652538 0.31857294 
-0.016670255 0.3337214 -0.2326577 
-0.15073507 -0.17852661 0.17455174 
-0.14125049 0.14148873 0.27187395 
-0.35759723 -0.26325753 -0.027641816 
0.23156232 0.46724105 -0.05885964 
-0.2951666 0.14739005 0.25831378 
-0.014100733 0.007636577 0.31807733 
0.268321 0.22633298 0.19692929 
-0.098056935 0.34060654 0.3148359 
0.21747464 0.3299843 -0.07814509 
-0.2504497 -0.20763999 0.099404626 
0.29993552 0.2718596 0.17495708 
-0.0882474 0.33361185 0.31993097 
-0.35406125 0.25232837 0.15283465 
-0.019170437 0.3946084 0.2951671 
-0.3488368 0.18650956 0.18057747 
0.3522895 -0.2743623 -0.026741346 
-0.24588113 -0.24250537 -0.21397226 
0.17367023 -0.018066527 0.21938196 
0.15593776 -0.070687026 -0.15904084 
-0.12253795 0.36398518 0.3035645 
-0.18528976 -0.040338222 -0.11334037 
-0.16261351 0.43806612 0.27314955 
-0.24912068 -0.41001838 0.040721543 
0.3109705 0.23695895 0.18427737 
-0.1912256 0.3367291 -0.17337416 
-0.19125938 0.37849084 -0.19273472 
0.14301999 0.32394415 -0.18725678 
-0.2495244 0.09019136 0.14630602 
-0.34896886 0.2670509 0.12311777 
0.11302043 -0.4512376 0.14240368 
-0.31716222 0.30901453 0.11343748 
0.35800698 0.20521533 0.11523842 
-0.14449832 -0.38004202 -0.25974786 
-0.28327915 0.3998411 -0.073717855 
0.27128893 0.26485366 0.19204403 
0.20498161 0.27118948 -0.13893002 
-0.11539469 0.37745076 0.31214184 
-0.34859064 0.27296495 0.16487145 
0.04815786 0.48132944 -0.20721827 
-0.083705105 -0.3999147 0.20859097 
0.19237076 -0.3181104 0.15898818 
-0.12252594 -0.40249464 0.18960507 
0.3338989 0.19913317 0.1867461 
-0.052543815 0.40616566 0.33689058 
-0.28545237 -0.30104205 0.081469424 
-0.010435668 -0.12346513 0.19570638 
-0.09167383 -0.12029835 -0.26627648 
0.2151896 0.31820792 -0.09855727 
-0.2823629 -0.3112298 -0.1377291 
0.27597454 -0.37851942 -0.09623052 
0.08497212 -0.37039232 0.21760346 
0.1958332 -0.10567486 -0.13757886 
-0.23638302 -0.1920297 -0.18860795 
-0.13454546 -0.1535188 0.18307644 
0.107921764 -0.00022146945 -0.16076666 
-0.24281788 0.46236557 -0.116491556 
-0.16840902 0.18928763 0.28234982 
-0.20206396 0.38480788 -0.17652534 
0.19139595 0.3669321 0.17028207 
0.29016656 0.31071198 0.01850888 
-0.30642068 -0.2003474 -0.04797888 
-0.25266418 0.38246658 -0.12257042 
-0.23551853 0.17798476 -0.17134787 
0.18469469 -0.116062954 0.08131919 
0.3157147 0.26776755 0.13317363 
0.1688848 -0.4249893 0.13700086 
0.18302275 0.40774757 -0.14500797 
-0.23672147 0.068603955 0.16364075 
0.09869667 0.079358265 0.30307668 
0.11698941 -0.1828498 0.19082113 
0.005725125 0.253902 0.3237884 
0.19704513 0.30637002 -0.13795444 
-0.2134381 -0.20328379 -0.22680418 
-0.29628098 -0.3325335 -0.019312238 
0.21658763 0.0774732 -0.040774208 
-0.048642367 0.09627504 0.31647152 
-0.27308017 0.0883153 0.050627176 
-0.08079797 -0.108152 -0.26447552 
-0.29508632 -0.19971329 0.10848444 
-0.08315054 -0.13680238 0.17681803 
-0.29676577 0.20734729 -0.049779825 
-0.05598 -0.10897898 0.1664324 
-0.26757583 0.118424505 0.13174781 
0.27605936 0.34685755 0.08387083 
0.020500641 -0.090078235 0.24219464 
0.21340284 0.027467312 0.03434268 
-0.1815249 -0.10049395 -0.19198449 
0.1318537 -0.008590104 -0.14170656 
-0.05513277 0.0919601 0.31619394 
-0.03799087 -0.2468293 0.23045829 
0.21618916 0.35372016 -0.08925211 
-0.17548475 -0.18389513 -0.25982296 
0.31126243 0.25058362 -0.0004014503 
-0.27744612 -0.08242588 0.047400415 
0.28429598 -0.2630977 -0.12947464 
-0.06353525 0.36177593 0.32124454 
-0.05256483 0.3820426 0.3250864 
-0.036199614 -0.040937956 -0.24188775 
0.25211713 0.31364384 -0.0013023784 
-0.28248295 -0.39608753 -0.026816461 
0.057553396 0.32372877 0.3064459 
0.11603765 0.42294812 0.29753095 
-0.069094375 0.011645557 0.31234425 
0.044520225 0.43118927 0.31508327 
-0.18984032 -0.37822825 0.14525531 
0.28426972 0.2589268 0.20005849 
0.18560046 -0.31951746 0.16516413 
0.111901924 -0.011709512 0.26282394 
-0.008230176 -0.14101149 0.19680929 
-0.2766259 -0.29297203 -0.1519873 
0.022570081 -0.1424253 0.19459568 
-0.029288981 0.045541834 0.32913125 
-0.32240468 0.2997588 0.201777 
-0.2936425 0.2614242 -0.05615823 
0.020459069 0.20367847 -0.26650184 
-0.022917066 0.322808 0.32417083 
0.24699776 0.25779292 -0.04542679 
0.19504753 0.16152574 -0.1551385 
0.03798 -0.07691005 0.25156027 
-0.0853125 -0.40183052 0.20631735 
0.1513174 0.029728785 0.2513798 
-0.006567018 0.24108252 0.3250864 
0.30536333 0.30378103 0.116889134 
0.21740335 -0.05849724 0.06240886 
-0.005880004 -0.122576624 -0.28136003 
-0.24379793 0.03169309 0.124543585 
-0.31292984 0.2375938 0.039520614 
-0.012528818 0.47452617 -0.22680418 
0.11831886 0.27036327 0.28480393 
0.2503071 0.43697426 0.14262903 
0.26610875 -0.3607554 -0.07566903 
-0.20653348 0.056862026 0.21055727 
-0.0018634459 -0.09876573 -0.2738558 
-0.16618401 0.08054768 0.25856155 
0.14880124 0.43823197 0.22673595 
0.10375572 -0.08914794 -0.24894127 
-0.018031817 0.3251726 0.32204747 
0.10302511 0.066366956 0.30341423 
-0.25668493 0.25719783 0.23550111 
-0.04921644 0.37667707 0.31913584 
-0.07468277 0.37052435 -0.23138165 
-0.10936654 0.22241277 -0.24984175 
0.25146428 -0.0963201 0.0317915 
0.13664214 -0.3079054 0.19661418 
-0.20036198 0.116543934 0.22943003 
0.14846805 0.17076945 0.2496764 
-0.08141932 0.1576138 0.2946344 
0.13576491 -0.24580346 0.19667417 
0.15701011 -0.10256736 0.09392623 
0.037951335 -0.26052225 0.23429285 
-0.04784242 -0.075420916 0.25793868 
0.25889945 0.36964488 0.082145005 
0.1891732 0.02563568 0.21554741 
0.20987587 0.3294943 0.18187596 
0.24740748 0.39182737 -0.011508011 
-0.09656508 -0.11499736 0.17098741 
-0.14646892 -0.4583373 0.13227315 
-0.020117538 -0.11735744 0.19787511 
-0.24730091 0.06853642 0.13812621 
-0.2075758 -0.044911895 -0.09352911 
0.16453986 0.25211447 0.25061446 
0.23107904 0.26458126 -0.0908277 
-0.2676704 0.22375752 0.27378756 
0.14694545 0.18074933 0.25483972 
-0.22630261 0.410305 0.20826808 
0.2681364 -0.34262744 -0.027566701 
0.12150606 -0.16993128 0.1777785 
0.048790127 -0.025755338 -0.22140136 
0.2564628 0.3307895 0.15080836 
0.28333846 -0.10569737 -0.010082191 
-0.26468894 0.24108627 0.25823867 
0.1862886 -0.18244305 -0.2253779 
0.015968617 -0.09568449 -0.27190465 
0.08359825 0.340115 0.3002777 
-0.078801095 0.21940808 0.3179949 
-0.12927824 -0.21144088 0.18352666 
0.0061533926 -0.06433597 -0.25141823 
-0.17110303 0.3874599 0.29307348 
-0.3042797 0.20342784 -0.017661529 
0.06770956 0.377414 0.30300158 
0.02253984 -0.19437553 0.22194825 
0.123265125 -0.052070398 0.23692693 
-0.26075897 0.3549381 0.21596742 
-0.3556829 -0.22596231 0.050026707 
0.17696384 0.42708746 -0.15378824 
-0.3543239 -0.25437555 0.074265204 
0.018754933 0.464956 -0.22913001 
0.09045441 -0.260929 0.22169314 
0.2048803 0.3611531 0.20728515 
0.1523012 0.07298342 0.24419847 
-0.2898296 0.32328752 0.18045014 
-0.2978366 0.308117 0.10848444 
0.18032648 0.06281671 0.22057511 
0.16123949 0.073647544 -0.17382394 
-0.07777076 0.11049178 0.2776299 
-0.20955019 -0.08119909 -0.04970471 
-0.26981884 0.13816136 -0.10163335 
-0.16883826 -0.13705978 -0.22672907 
-0.040630106 0.43111494 0.30956775 
0.1003073 0.17341319 0.2829054 
0.050829858 0.117932215 0.3118565 
0.12602119 0.1246485 0.2435229 
-0.28438902 0.1278453 0.25606263 
-0.17439814 0.24419226 0.29206032 
-0.1815339 -0.06166117 0.11358726 
0.26155218 -0.08462289 0.007928127 
0.31461078 -0.15772866 0.00012344227 
0.15888841 -0.09449658 -0.19701265 
-0.24301827 -0.3477251 0.08387083 
0.16839552 -0.21017793 -0.2658258 
0.048901927 0.08991971 0.32137185 
-0.16083875 -0.2022302 -0.27325487 
-0.27563986 -0.3011471 0.08026895 
0.1795648 -0.021395445 -0.0638878 
0.36789453 0.19206119 0.11718959 
-0.074217506 -0.14551328 0.1900182 
0.2928688 0.3315602 0.06961262 
-0.06504735 -0.14938322 0.21921708 
-0.12050356 -0.059431363 -0.21314599 
-0.20324813 -0.015734643 0.20740516 
0.10149342 0.2221884 0.29500955 
0.07552258 -0.032965697 0.26822722 
0.11026878 0.11052631 0.2589816 
0.21411274 0.11855733 -0.099307515 
0.2792967 -0.38805354 -0.106436156 
-0.30799657 0.16052695 0.2429751 
-0.2513322 -0.16039266 -0.094579816 
0.11019246 0.11880947 0.2582162 
-0.18712379 -0.24370079 -0.280684 
0.08892504 0.046590246 -0.22200137 
-0.33283857 -0.15282689 0.036969434 
0.25300938 0.34263566 0.13790132 
-0.30963024 0.44588402 0.035543613 
-0.3618859 0.18282199 0.1512586 
-0.16260226 0.024707181 0.2608654 
-0.25050747 0.15226778 0.25590503 
0.0112729985 0.31983784 -0.24008681 
-0.3656275 -0.28765526 0.04890089 
0.26652598 0.28911707 0.1820184 
-0.27246258 -0.43503448 -0.07214226 
-0.07750886 -0.061056405 0.2661482 
-0.0396373 -0.36414808 0.22971538 
0.09388444 -0.37041184 0.21443671 
0.014216831 0.19339769 -0.2674774 
0.19378005 0.19885926 0.20987435 
-0.053182427 0.07651116 0.3239684 
0.32306656 -0.27023122 0.0005736773 
-0.26381245 0.087818526 0.09475204 
0.16401304 -0.081676655 -0.15776479 
0.24005483 0.2945929 -0.0049793744 
-0.16342396 -0.42355224 0.14930743 
-0.25923115 0.2840277 -0.123771355 
-0.26312658 0.07282508 0.07914313 
-0.0993454 -0.03803142 -0.21232064 
0.081890814 0.21334617 0.30276155 
0.23517786 0.4024038 -0.050605178 
0.053258426 -0.4414656 0.15921307 
0.24806485 -0.13379544 0.040346425 
-0.06415585 0.2730565 -0.25216848 
0.25005046 0.3429351 0.026013102 
-0.04634608 0.15062512 -0.2674023 
0.13797489 -0.27940512 -0.3134774 
0.3262964 -0.29327142 -0.012783601 
-0.15547323 0.1471274 0.27159643 
-0.25034538 -0.3751575 0.05648023 
0.25401345 0.38060778 0.09835392 
-0.27420056 -0.28312796 0.08432106 
0.25616866 0.4011671 0.048600886 
-0.15616512 0.10879508 0.24282533 
0.19905177 -0.011566069 0.18406713 
-0.30905315 0.2722303 0.05250323 
-0.061593905 -0.4889223 0.09625252 
0.22286643 0.26898548 -0.10853756 
0.20684491 -0.2548333 0.13609992 
-0.23168163 -0.40138853 0.07689195 
0.14611398 0.43604147 0.27315736 
-0.2555938 -0.11157243 -0.039573275 
-0.24119548 0.3638186 -0.14853474 
0.14452758 0.2901346 -0.19873847 
-0.13783681 0.31088006 0.26602823 
-0.111085005 0.3645165 0.3116765 
-0.31148678 0.31154418 0.1809906 
0.24864793 -0.05854474 -0.027641816 
0.21576592 0.26659912 0.18474272 
0.07485778 0.25660875 0.30880243 
0.2660052 -0.3797186 -0.15693943 
-0.15495545 0.08261284 0.26617068 
-0.274572 -0.3427513 -0.16692063 
-0.28241467 0.38810003 0.17719315 
0.018579636 0.15730612 0.30183083 
-0.09103147 0.4085265 0.3236006 
-0.024069792 0.3313771 0.3288834 
0.34295276 0.21797627 0.14397973 
-0.2751431 -0.3519552 -0.15438825 
-0.11119907 -0.32230526 0.21420403 
-0.22943486 0.20488665 0.24452871 
-0.17426306 -0.09506239 -0.18920796 
-0.023493694 0.11077394 -0.2648502 
-0.21908727 0.21504961 0.25540215 
-0.25326377 0.021037318 -0.0025028526 
0.2245226 0.4723334 0.11208678 
0.32358435 0.24556328 0.025112633 
0.35109034 -0.20653161 -0.029818334 
0.1818003 0.40962288 -0.1446324 
-0.19258988 0.057483528 -0.17982768 
0.072209165 0.10534464 0.30921507 
0.13119258 0.43315536 0.2848639 
-0.13377327 0.46590602 -0.2062427 
-0.03528035 0.34881014 0.32391572 
0.15666716 -0.1095463 -0.20136476 
0.2867011 0.32076988 0.14698114 
-0.067487724 -0.19787775 -0.31647927 
-0.10478072 0.27579632 0.3127194 
0.15692607 -0.39947945 0.16296518 
-0.2393577 0.36692086 0.18464516 
0.23869058 -0.049318373 -0.04955448 
-0.24071746 -0.23662205 -0.21877415 
-0.28051084 0.27198792 0.24426581 
-0.30357656 0.30026758 0.07238915 
0.007873885 0.22374177 0.32230258 
-0.2564951 -0.28971893 -0.2026408 
-0.27104503 -0.118182905 0.09707833 
-0.045594152 -0.32353222 -0.31235254 
-0.11147974 -0.4414003 0.17609024 
-0.25958908 0.070567064 0.09550228 
-0.021948723 -0.03578811 -0.23385772 
0.32232592 -0.15017566 -0.030493457 
0.11888693 0.08796411 0.2647224 
0.116200946 0.3967111 0.28263515 
-0.24677561 0.00646832 0.044698544 
0.24021694 -0.39194897 0.05392905 
-0.023353811 -0.2820729 0.2448365 
-0.21474835 -0.16304089 -0.19836289 
-0.1997594 -0.10122185 -0.15769058 
-0.01656632 0.4278071 0.30859947 
0.21266142 0.02133111 0.15898818 
0.27642104 0.31699973 0.16574949 
-0.1414711 -0.24199207 0.19277962 
-0.29423234 -0.40537626 -0.0913526 
-0.14056386 -0.20479439 -0.29051495 
0.14106664 -0.35385826 0.19745465 
-0.20104638 0.42314547 -0.17750093 
0.151475 -0.077325106 -0.17555067 
0.10068356 0.3460486 0.29239792 
-0.18612725 -0.21060792 0.12671965 
0.24525677 0.19569774 -0.054131944 
-0.2770289 -0.26908383 -0.15446337 
-0.25220793 -0.29898438 0.07711684 
0.1899784 0.23078749 -0.16774599 
0.0911024 0.29001006 -0.22868024 
-0.2331172 0.2986354 0.21394159 
0.18273158 -0.09440652 -0.13870469 
0.2593752 0.35725993 0.08694736 
-0.009902645 -0.17379594 -0.3128023 
-0.27104953 0.07708674 -0.033570446 
-0.046152472 0.42179772 0.32775807 
0.21762097 -0.37776223 0.10870979 
-0.26571327 0.31878576 -0.08715071 
-0.22408286 -0.38936824 0.09467693 
-0.16194187 0.4348836 0.2725271 
-0.13273543 -0.09048512 0.10015486 
0.18707578 -0.11122499 -0.14785962 
-0.3071411 0.16575888 0.03974596 
0.13636824 0.3611351 0.27200907 
0.2710743 0.34317446 0.12679476 
0.2673732 -0.08568669 -0.0016023824 
0.057300005 0.4358914 0.29876167 
-0.021242647 0.08260384 0.32985902 
-0.21888544 0.121023215 -0.17735161 
-0.027341632 0.14136791 0.28385812 
0.22783045 -0.21082778 -0.16594505 
0.042253207 0.14231344 0.28702486 
0.23893596 0.2662412 -0.07086621 
0.04922307 0.47464845 -0.21667367 
-0.18335067 0.2508778 0.2865224 
0.09228109 -0.341799 0.22161847 
-0.09133989 0.27168173 -0.24473938 
0.14335318 -0.24659291 0.19170648 
0.06311967 0.11195585 -0.25126803 
-0.0666345 0.36136997 0.3238933 
-0.061700467 0.19120722 0.31367254 
0.21979195 0.088920146 -0.043550733 
0.21710844 0.047093935 0.04634971 
-0.14592937 0.1940468 -0.2385103 
-0.16134605 0.15801603 0.272632 
0.025998311 0.14459097 -0.26560134 
-0.19155203 -0.33100116 0.15981352 
-0.2225835 0.23489228 0.25645286 
-0.25388885 0.14167258 0.23824008 
-0.31760046 0.3516835 0.05625534 
-0.059753876 0.28249756 -0.2506671 
-0.22035852 0.31608948 0.25855422 
0.16934104 0.40598407 -0.15799013 
-0.21859725 0.059794754 0.1928923 
0.15233648 -0.22057277 0.1765629 
0.053032447 -0.34592104 0.23123877 
0.13079411 -0.25578183 0.20182966 
-0.07666839 -0.199218 -0.31482857 
-0.27471757 -0.09616851 0.07306473 
0.23223844 0.13021813 -0.0023526216 
-0.26675186 -0.084262766 -0.021488756 
-0.36671785 0.20506375 0.1472816 
0.08206026 -0.48739293 0.13017176 
0.22294596 0.3707285 0.17859653 
-0.06815485 0.14663963 0.2944091 
-0.0598049 0.0853744 0.31770223 
-0.2638222 0.33613402 -0.10628593 
-0.2086309 0.0973744 -0.18027745 
0.23802795 0.26918882 -0.07214226 
-0.28527603 -0.08844757 0.03449291 
0.13187847 0.12605855 0.23710693 
0.19772127 0.14801365 0.18227352 
-0.13244203 -0.20997381 0.18529052 
-0.022602791 -0.00086338114 0.3122316 
-0.28322512 -0.30418032 -0.13517791 
0.1608928 -0.21243669 -0.2728802 
0.086064816 -0.33958074 0.22365943 
-0.35037518 -0.24552506 0.08086895 
-0.17489491 0.14561455 0.2611279 
0.12664127 -0.022325272 -0.16737041 
0.003577566 0.02726695 0.3269025 
0.27489996 0.23861814 0.2002614 
0.05985834 -0.13680914 0.1849676 
0.015248735 0.22343034 -0.26402485 
-0.15876009 0.378743 0.2636795 
0.15755641 -0.43670115 0.12536894 
-0.18015161 -0.16273098 0.12882105 
0.1281121 -0.0012600545 0.25937963 
-0.14732516 -0.34892726 0.19308741 
-0.3377921 -0.15875149 0.023837043 
-0.15987597 -0.03027971 0.24882129 
0.1805186 -0.4464694 0.09054969 
0.20025168 0.06281671 -0.095254935 
0.2868827 0.33550665 0.080343604 
0.1984079 0.31757683 0.20180722 
0.14016989 0.3687001 0.27254957 
-0.19960707 -0.39201725 0.1270201 
0.042812347 0.33507442 0.3184076 
-0.07293954 0.383668 0.26323658 
0.051709324 0.3277638 0.3101458 
0.27131668 -0.38128996 -0.073117845 
0.14933479 -0.07121337 -0.17224833 
-0.30011413 0.38711396 0.13452433 
0.17770526 0.2548025 0.2386152 
-0.22162746 -0.34047523 0.12064125 
-0.022588234 0.3038441 0.31328964 
0.253633 0.3689357 0.0028253107 
-0.26866695 0.33459717 0.21826392 
-0.20533656 -0.274258 0.14090274 
0.17060101 -0.4297237 0.13279851 
-0.04159065 -0.1593368 -0.306499 
0.29079914 -0.1332979 -0.10531034 
-0.030461136 -0.1617937 -0.3079244 
-0.28723913 0.11945708 -0.012108478 
-0.14582807 -0.41636994 0.16791822 
-0.28522277 0.3918251 -0.056383576 
-0.25738057 -0.23338097 -0.18117884 
-0.15812898 0.053792275 0.25859177 
0.2834435 0.3053682 0.17364395 
-0.27729228 0.10858946 0.079443134 
-0.20998617 0.27771813 0.2655629 
0.28433877 -0.2331266 0.018133761 
-0.3452468 0.22027032 0.19752976 
-0.3606222 -0.22598031 0.042372253 
-0.2791706 0.17308076 0.2754534 
0.24961896 0.45578134 -0.013533841 
-0.076469526 -0.10594652 0.18148573 
0.23560783 -0.28927916 0.10038021 
-0.23420003 0.28584522 0.24202241 
-0.20149587 0.38734433 0.27346516 
-0.18755154 -0.1769995 -0.2457901 
-0.30861866 -0.12352516 0.057606045 
0.21851549 -0.1888029 0.05775628 
-0.2235628 -0.03976377 0.091299936 
0.23232849 0.13139404 -0.013909418 
0.20629035 0.052548677 0.17699803 
0.024776697 -0.05300865 0.26695895 
0.018501293 -0.23165351 0.23334749 
0.009804045 0.21498358 0.32006603 
-0.10736367 0.4725968 -0.21082015 
0.07355595 -0.20485969 0.21415915 
-0.27049646 -0.04007272 0.050476942 
-0.14837348 -0.17598718 -0.27445585 
0.052725486 -0.09868768 0.19053577 
-0.28556645 -0.33892336 -0.12579764 
0.25102752 0.45653778 -0.0061798487 
-0.349149 0.22114906 0.18037502 
-0.070364095 -0.39827353 0.21158506 
0.11613896 0.43326718 0.29069453 
-0.231888 0.41166776 0.25733817 
-0.29463378 0.43697578 0.12897128 
-0.17748913 0.38681003 -0.1931103 
-0.29226246 -0.30363324 -0.098407045 
0.03808829 0.32134545 0.3113389 
0.21302764 -0.0025211386 0.096027635 
-0.30048108 0.15311727 0.05310324 
0.33946478 0.19927649 0.18057747 
0.06265404 0.09353149 0.31788224 
-0.07835009 -0.1451771 0.2067076 
-0.2255702 0.25858763 0.2558977 
-0.017938918 -0.18490371 -0.31625485 
-0.19040088 -0.19234864 0.12754546 
-0.31089622 0.261948 0.04027131 
0.29472536 0.3256491 0.082445 
-0.08191009 -0.24077639 -0.3356154 
-0.12292067 0.3374743 0.2660731 
-0.35395917 -0.25203198 0.07719196 
-0.05756789 0.116274536 0.2895316 
0.028943943 0.21634336 -0.26289904 
0.06902993 0.101238325 0.31288475 
0.17578794 0.25519496 -0.18095349 
0.15631597 0.3732724 0.25772846 
-0.21867982 -0.36123493 0.11726471 
-0.01499366 0.23355877 -0.2646258 
0.045099325 -0.17827672 -0.30514783 
-0.25248936 0.30345163 -0.12699765 
-0.121918105 0.2391907 0.31189406 
-0.10438524 0.17970623 0.30018747 
-0.2569746 0.045646746 -0.05037983 
-0.26730043 -0.26831838 -0.18275443 
-0.27116883 0.29306954 -0.099082164 
0.21257362 0.0318446 0.15778723 
0.35970217 -0.2210553 -0.073943205 
-0.13312191 0.3658605 0.30060017 
0.25476614 0.405876 0.058206514 
0.117856525 0.14086062 0.2573611 
0.3136195 0.28193024 0.10045487 
-0.33580723 0.27941784 0.22643594 
0.23272397 -0.17787075 0.05220277 
0.18609948 -0.0070729 -0.062311288 
0.13212235 0.23359482 0.2783426 
0.27356872 -0.2984651 0.025637984 
0.07540386 0.10664587 -0.24541451 
-0.23997454 0.07032318 -0.11829342 
-0.24573779 0.0678798 -0.107336625 
0.194559 0.16000015 -0.15581453 
-0.21095422 -0.004221146 0.00087413937 
-0.27785662 0.44996032 -0.010007076 
-0.07927912 0.19766983 -0.2620737 
0.16923223 -0.04804303 -0.09277888 
-0.2922122 0.23172927 0.2747705 
0.31027862 0.29147112 0.08994923 
-0.23118334 -0.26157883 -0.23678447 
-0.3592594 0.19267653 0.15981352 
-0.26431748 0.16024028 0.26959258 
0.17554855 -0.42327234 0.13159758 
-0.30311805 0.372101 0.0053013745 
-0.34340224 -0.29659054 0.08071918 
0.27841192 -0.31463447 -0.010682657 
-0.27811852 0.28047368 -0.08955166 
0.036718693 0.45832604 -0.23123142 
0.1935054 0.47792628 -0.1077122 
-0.2991506 -0.15216802 -0.032369513 
0.10953164 0.22456272 0.2916252 
-0.11334378 -0.20252436 -0.30454785 
-0.23029634 0.031995583 0.16814311 
0.021507557 0.3588253 -0.23618446 
0.24414316 0.4627888 -0.028767632 
0.2117369 0.352963 0.19593859 
0.30212227 0.31312758 0.07824266 
-0.29716122 0.24200478 0.27119887 
0.31156334 0.28853697 0.101205565 
0.22609924 0.4253037 0.17633024 
0.22837602 -0.2935213 -0.22740419 
-0.34393805 -0.27534008 -0.039499074 
0.2522462 -0.4029742 -0.00017656176 
-0.093664706 0.38146403 0.31798756 
0.2245196 -0.3814438 0.09565251 
0.18545562 0.38665017 -0.1514615 
0.14954565 -0.1118666 0.11403795 
-0.053992882 -0.23452987 0.22562571 
-0.15170537 -0.12507553 0.12949663 
0.26725316 -0.35092714 -0.10298451 
0.2639303 -0.41681945 -0.020588286 
0.22819367 -0.38966843 -0.19851312 
0.12804382 -0.22311069 -0.30349714 
-0.035541497 0.1551089 0.30311424 
-0.0988051 -0.29780924 -0.32158256 
0.08865594 -0.13258201 0.17154987 
-0.30240667 0.20467278 -0.026366685 
0.31818804 -0.22322851 -0.13112535 
-0.36903214 -0.24050248 0.0017746094 
0.013324802 0.30589575 -0.24391404 
-0.17123887 -0.33712986 0.17730582 
0.18281412 0.10047515 0.19686197 
0.13254035 0.17620851 -0.22087556 
-0.25130817 -0.20457302 0.09122482 
-0.022325883 0.25600618 0.32520646 
-0.22347125 0.22154902 0.25406653 
-0.25841767 0.41082504 0.22744176 
0.17352766 0.010219457 0.23055585 
0.31959286 -0.20873111 -0.13022487 
-0.15999304 -0.27504367 0.18742168 
0.17219716 0.19650744 -0.1894333 
0.26666632 -0.32029337 -0.1039601 
0.27488193 0.32834238 0.15305954 
-0.23940496 0.09534076 0.16803822 
-0.18754779 0.12502596 0.24143706 
-0.10510339 -0.18275449 0.20061408 
-0.08681185 -0.27185813 0.22163314 
0.1835503 -0.06699457 0.06113281 
-0.12339568 -0.13508691 0.15373513 
0.21538095 -0.23445258 -0.22770466 
0.19580244 -0.20211914 0.122967534 
-0.2006269 0.18861376 -0.20586711 
0.053265817 -0.4767737 0.15951352 
0.22539909 0.4753456 -0.018261537 
0.15342985 0.28394964 0.25357878 
-0.033678953 0.29907665 -0.24864173 
0.018637493 0.44226247 0.31208915 
-0.31279925 0.19976352 0.25341386 
-0.24548788 0.014528754 0.09265064 
-0.31012627 0.3662207 0.0652605 
0.11906606 -0.2954589 -0.32638538 
0.07508336 -0.4065529 0.19741708 
-0.23201557 0.32386538 0.25680554 
-0.1187093 -0.11054585 0.15823747 
0.04874719 0.26702613 0.314453 
0.24386097 -0.1260826 0.048525773 
-0.13895193 -0.43352085 0.16371587 
-0.13488464 -0.07486432 0.228012 
0.19617991 0.3475262 -0.12497137 
0.3139722 0.27841753 0.116889134 
-0.06154588 -0.02096495 0.28691995 
-0.24332443 -0.28474438 0.0911497 
0.18335743 -0.32439595 0.16755043 
-0.10939056 0.29621378 0.30441225 
-0.26606748 -0.085738316 0.09985486 
0.20017065 -0.4021922 -0.19303519 
0.34077203 -0.27025223 -0.009331494 
0.029047877 -0.23883055 0.23244703 
-0.24188587 -0.0565583 -0.0045291395 
0.30547816 -0.12461402 -0.07979672 
-0.16009733 0.014586536 0.26218587 
0.25655288 -0.08298112 0.012130474 
0.2748354 -0.31988442 -0.019537585 
0.15568861 0.122087315 0.21730345 
0.18197891 0.33120447 -0.1424568 
-0.12441851 -0.3689335 0.20311303 
0.33385763 -0.16957858 -0.04430097 
0.0791571 0.40791717 0.3066712 
-0.10011983 0.10065975 -0.2495422 
0.333183 0.22883938 0.14390461 
0.28083205 0.33727765 0.054604173 
0.19487043 -0.22534922 0.13489945 
0.004607073 -0.2768244 0.24232975 
0.20058863 0.18380654 0.19968337 
-0.29575267 -0.27344903 0.092725754 
0.3042257 -0.12040415 -0.033420216 
0.11681374 -0.44498882 0.1620647 
0.11258526 -0.40469715 0.18989775 
-0.23712519 0.21289816 0.26647115 
-0.2859334 -0.30337587 -0.11266525 
-0.26558796 0.21990035 -0.13074976 
0.07680438 -0.2099438 -0.3197816 
-0.004050251 0.2231887 0.32348794 
-0.2454894 -0.12875935 -0.037022095 
-0.010398976 -0.10807471 0.19364253 
-0.045572393 -0.1256556 0.19592394 
-0.34964877 -0.19382548 0.071638905 
0.20661302 -0.285422 -0.25509524 
-0.3073392 0.32552904 0.10383186 
0.10028546 -0.19899888 -0.30514783 
-0.2405201 0.12903172 0.2046662 
0.3122342 0.28704515 0.10015486 
0.14717433 -0.124248564 -0.22290185 
0.06506244 0.3920367 0.27734458 
-0.31841394 -0.19376919 0.0995544 
-0.27327153 -0.299172 -0.17007183 
-0.007278118 0.056583323 0.3314575 
0.30231062 -0.12758194 -0.011883131 
-0.2842217 -0.3149301 -0.1288737 
-0.34367615 0.24911879 0.21795614 
0.20039578 0.31966224 0.19449812 
-0.3003858 0.15365833 0.039520614 
0.16634837 -0.1261764 -0.20188965 
0.25387612 0.21426319 -0.032895323 
-0.047486715 0.15716429 0.3006304 
-0.19953878 0.2295853 -0.20249058 
0.0334434 0.34014276 0.31494814 
0.1348764 -0.053211413 -0.1546136 
0.23850973 0.21471643 0.17239812 
-0.24509917 0.017635278 -0.054282174 
0.07071665 0.3425441 0.309658 
0.031608917 0.37523776 0.3135901 
-0.34269384 0.15063487 0.15853794 
-0.23888569 -0.37516505 0.07614126 
-0.35618418 0.19148861 0.16991428 
0.23816077 -0.29816043 -0.21202108 
-0.29596353 0.43343377 0.13219804 
0.031398423 -0.258316 0.2349982 
-0.20285039 0.1383152 0.2412044 
0.21777931 0.03135585 0.10068021 
0.22952491 0.21977879 -0.1023845 
-0.27411726 -0.07473645 0.055504646 
0.09593557 -0.23672637 -0.31880605 
-0.054383103 -0.4041238 0.21067727 
0.22225183 0.12080408 0.101205565 
0.12614974 0.09919418 -0.21592252 
-0.25447497 -0.36297515 0.07156379 
-0.34177682 -0.16520888 0.027438924 
-0.17119458 -0.29947817 0.17937699 
-0.2175294 -0.06657501 0.10240604 
-0.14575303 -0.07429963 -0.20249058 
0.128371 -0.13971026 0.18263398 
-0.3523773 -0.22191077 0.053553473 
0.15395515 0.33196467 0.2077954 
-0.30498362 0.323683 0.0077778962 
0.06856654 -0.14299111 0.21329623 
0.042252455 0.26048395 0.31600618 
0.01003165 0.26693082 0.32161188 
0.1360373 -0.16830511 -0.26394975 
0.1155333 0.27321187 -0.22057602 
-0.21840514 -0.0726367 0.11096096 
0.16653822 -0.15401031 0.1293464 
0.16502312 0.12653731 0.21169774 
0.2460237 0.41160625 0.12619476 
0.11304774 -0.123927385 0.15928818 
0.11393257 -0.08547905 -0.23558445 
0.027287234 0.32335508 0.31464082 
0.22677763 0.43198395 -0.08039673 
0.19006096 -0.15029648 -0.19183426 
0.20464318 -0.33551568 -0.2552455 
0.12911166 0.45077378 0.270433 
0.3021553 0.30940098 0.07389008 
0.092378266 -0.08744973 -0.25389433 
-0.07745709 -0.05850692 -0.22770466 
0.2044623 -0.05492305 -0.09202863 
0.1868244 0.10429855 0.18117793 
0.23849922 0.15645064 -0.03994885 
0.29055002 0.31545237 0.039145492 
0.07717891 -0.0376412 0.26449752 
0.14034474 0.16906674 0.2550646 
-0.04387193 0.42845845 0.326182 
-0.31375757 0.30046567 0.1056328 
0.24000306 0.39529878 0.1441295 
0.06156765 0.07020836 0.3217172 
0.0435275 -0.10802668 0.1935601 
-0.019055996 0.43077427 -0.23573378 
-0.056851234 -0.0447038 0.2787177 
-0.24818191 0.26581568 0.23475087 
0.03893559 -0.0658074 -0.24804081 
0.15698534 0.09751623 0.22516769 
0.0029888616 0.40065157 0.29278082 
-0.043099 -0.19320036 0.21783614 
-0.22615853 -0.25959998 0.112386785 
-0.012327711 -0.374254 0.23002318 
0.19373952 0.16407043 0.19934581 
-0.24319234 0.4071855 0.24633698 
0.21781908 0.11624001 -0.086474665 
0.25228673 0.25088453 -0.030643689 
0.23212513 0.16225967 -0.07529345 
-0.2960701 0.33379194 -0.031094382 
0.08050861 -0.26859832 0.22702862 
-0.15492918 0.30060676 0.29016185 
0.13178466 -0.08488209 0.15080836 
0.35451302 -0.25033528 -0.020212708 
-0.21893194 0.24320845 0.25952983 
-0.3151691 0.2063875 0.063759565 
-0.27583796 -0.23651549 -0.049103785 
-0.20092332 0.39464968 0.27501827 
-0.23953478 0.3402831 -0.13997981 
0.33229676 0.2285137 0.10143045 
0.009495249 -0.35841858 0.23318993 
0.25194302 -0.060026973 -0.030418342 
-0.22349828 -0.1973367 -0.2147225 
-0.0059458157 -0.15177855 0.20850074 
0.064171016 0.22979242 -0.25291872 
-0.19607782 0.040970784 0.2267213 
-0.30492732 -0.13660802 0.06991308 
-0.2628219 -0.39304158 0.021660525 
0.2176705 0.047711525 0.054979295 
-0.25203234 -0.35421023 0.062859096 
-0.04428617 -0.35676843 0.23049586 
-0.06341143 -0.31137535 0.22535548 
0.049685676 0.11765982 0.31558615 
-0.26206923 0.4314489 0.11726471 
-0.033302236 0.17226054 0.30953753 
0.35229775 -0.23140587 -0.014134306 
-0.22926752 0.3984183 0.25244564 
-0.12683561 -0.23301177 -0.31542856 
-0.10889228 0.11266876 0.2552899 
-0.022834443 0.427636 -0.2343084 
-0.30047882 0.16130213 0.004025785 
-0.083458215 0.13812159 0.28714532 
0.09061522 -0.16306566 0.19150403 
-0.25269493 0.15250193 0.23097585 
-0.18475021 0.04305786 0.23934345 
0.011678902 0.46744144 -0.22935537 
0.068548605 -0.32620746 0.2299105 
0.25502425 -0.2126318 0.022786342 
0.16522273 -0.41856194 0.14450508 
0.058054715 0.41543788 0.31550372 
-0.049006324 0.3922776 0.32688004 
-0.16413012 0.14148048 0.26307172 
-0.112989575 -0.117619336 -0.25734597 
-0.28533006 0.12747084 0.08837318 
0.19688155 0.34413952 0.21146506 
0.08536797 -0.4551743 0.16974893 
0.008276186 0.42836016 0.32252747 
-0.14984056 -0.062325895 -0.17802674 
-0.104380734 -0.14899074 -0.2872126 
-0.19855423 0.14297982 0.24443848 
0.24704802 0.4087674 0.1135126 
-0.25981197 0.041058738 0.022336107 
0.22952266 0.3894125 0.16886356 
0.1922597 -0.32025212 0.1597384 
-0.017481532 -0.14262715 -0.30432248 
