-0.19256677 0.035513885 0.016566657 
-0.36948192 -0.23173797 -0.26636076 
-0.09424317 -0.1403763 -0.034160804 
0.022249153 0.049686905 -0.16605788 
0.18079561 0.18889047 0.13856035 
-0.12428787 0.08742386 0.04192796 
0.24341545 0.08538581 0.12795512 
0.32013166 0.1532178 -0.13654396 
0.18101732 0.046614286 0.06396934 
0.06121685 -0.08033697 -0.14984249 
-0.26069817 -0.18445145 -0.2633573 
0.062064935 -0.03432791 0.10572097 
0.068099976 0.021595616 0.09907593 
0.24300577 0.037231438 -0.11076953 
-0.47251806 -0.017406637 -0.11937355 
0.1770487 0.016981341 0.056974985 
0.11988368 0.0586256 -0.17282411 
-0.48077908 -0.028651569 -0.091415524 
0.15442505 -0.037672833 -0.13963367 
-0.027939033 0.10915766 0.036189526 
0.2735565 0.19735022 0.010920219 
0.29982752 0.119695 -0.11108484 
0.06774119 0.1335282 0.052741118 
-0.14684303 -0.015003482 0.108144194 
-0.36964816 0.010272818 -0.1581177 
0.40800172 0.26609966 0.07846272 
0.086811006 0.020454358 0.093309276 
0.06832593 0.05857601 -0.19291113 
-0.30140984 -0.36095703 -0.1347856 
-0.08184918 -0.11221279 0.011075564 
0.38075754 0.27100134 0.04093908 
-0.2460588 -0.31036422 -0.028754067 
-0.17725398 0.07757598 -0.057841547 
-0.24909902 -0.30520493 -0.026685514 
0.046519402 0.076924086 -0.14135076 
0.2923991 0.2614647 0.12907432 
0.0080015045 -0.1069357 -0.097180575 
-0.33536777 -0.049181916 0.088890985 
0.36266303 0.0830079 0.061135583 
-0.04158079 -0.12079342 -0.07434188 
-0.14967151 -0.1350381 0.01840912 
0.016032597 0.014079871 -0.19080228 
0.14716838 0.0069963625 0.08841553 
0.23606211 0.20009296 -0.067668594 
0.14603369 -0.031607945 0.043695077 
-0.3236712 -0.01862734 0.013179552 
0.3307203 0.2065912 -0.07943971 
-0.38991773 -0.11753971 -0.22236678 
-0.17920218 -0.07927938 -0.2277654 
-0.28356895 -0.12621124 -0.24584194 
-0.25508335 -0.20048177 -0.2538966 
-0.33603624 -0.2653508 0.076906905 
-0.12592348 0.06516381 0.022960197 
-0.43400088 -0.08236202 -0.1314396 
-0.15969275 -0.13435502 -0.0077972678 
-0.33974582 -0.059284 -0.2308377 
-0.2878813 -0.0075732768 -0.093936116 
-0.074950375 -0.0028287445 -0.20094143 
0.23678507 0.045163244 -0.08416686 
-0.37211835 -0.30511636 -0.008076225 
-0.36095044 -0.102568544 0.030577224 
0.002831593 0.07216389 0.080004185 
0.37672535 0.15966281 -0.101538286 
-0.08409396 -0.15425608 -0.043816984 
-0.0885443 0.10183084 0.06093244 
-0.3225139 -0.28082082 -0.22141548 
0.37549487 0.1130442 -0.070876345 
0.099251434 -0.033760156 0.09925848 
-0.22082439 0.035220042 -0.030778848 
-0.3742685 -0.11992563 0.079128675 
0.3780673 0.1596056 0.036455035 
0.38527045 0.1499666 -0.05514944 
-0.46707606 -0.018836994 -0.14245854 
0.19011134 0.008691752 -0.14760627 
-0.111555815 -0.047595613 -0.19907033 
0.29523906 0.18616824 -0.030229151 
0.2689279 0.19692914 0.025399031 
-0.47861704 -0.06789288 -0.1589366 
0.065951064 -0.011519811 -0.2079621 
-0.05498506 -0.095806986 0.05214206 
-0.3115901 -0.07134716 -0.22516449 
-0.18099691 -0.10178222 0.022392726 
0.2601777 0.20092179 0.008639593 
-0.39449155 0.0064894864 -0.1371341 
0.38061032 0.28150535 0.15283966 
-0.128954 -0.025501411 -0.20387493 
-0.10831105 -0.11584979 0.05277384 
0.19834869 0.09461465 0.08128198 
0.084909655 0.1492163 -0.048831746 
-0.026651304 -0.0074831806 0.08965376 
-0.24685213 -0.28870246 -0.2226418 
-0.26037642 -0.037371855 -0.19505171 
0.27286395 0.23567453 0.09376073 
0.4513813 0.217464 -0.09239717 
-0.35116652 0.008092326 -0.0008059619 
0.23650983 0.11311638 -0.15201744 
-0.040845383 0.123675056 0.092173606 
0.2092874 0.17766017 0.15192816 
0.4463779 0.2120273 -0.011899827 
-0.2611819 -0.35274994 -0.16698495 
0.033767752 -0.03888052 -0.18782274 
0.14098129 -0.03872749 -0.09266427 
0.0055990834 0.033553164 0.10164615 
0.18026793 0.26568645 0.097384974 
-0.27798823 -0.085738875 0.031430185 
-0.41738242 -0.20865342 0.027694855 
0.2933858 0.08510055 -0.11606566 
-0.4559008 -0.019378968 -0.16686884 
0.18376093 0.034678124 0.041289873 
0.1551369 0.013829803 -0.09017973 
0.07134912 0.00419757 -0.16591348 
0.26568237 0.08325228 -0.11712252 
-0.101707175 0.033386454 0.077842824 
-0.19896704 -0.073905386 -0.2142731 
0.2307275 0.2030157 -0.04480314 
0.11587758 0.050666388 -0.14119929 
-0.31156504 -0.0067911237 -0.16917838 
0.29444504 0.05750365 -0.08255226 
-0.44988543 -0.24649933 0.052415486 
-0.17887852 -0.040876027 -0.19366285 
-0.35354555 -0.03462486 0.00046052318 
0.2629881 0.2052165 -0.09638483 
0.012438853 -0.15470567 -0.033267703 
0.11944853 -0.116215564 -0.015955124 
0.032003384 -0.13299778 -0.011391155 
-0.40444228 -0.031438828 -0.23455265 
-0.2253117 0.027485264 -0.02633443 
0.3776138 0.3009873 0.10536883 
-0.37129575 -0.14804682 -0.27884746 
0.2780748 0.3000241 0.16510731 
-0.47918174 -0.037122644 -0.12562855 
0.41688618 0.23133594 -0.08373514 
0.10523449 0.17037143 -0.0098677855 
0.124828674 0.21133974 0.054311357 
-0.075600386 -0.09153901 -0.15084688 
-0.16434553 0.019142974 0.054869503 
0.17073911 0.25723055 0.10201859 
-0.28768164 -0.099454515 -0.24062596 
0.26470104 0.19428678 0.029861726 
0.19887614 0.2184705 0.13438353 
-0.124362916 0.05931668 0.030277 
0.22636373 0.111319065 0.11680166 
-0.15172361 -0.021182945 0.10266014 
-0.23215318 -0.058401577 -0.18943419 
0.035086386 0.14424269 0.10358495 
0.22920984 0.04634189 0.0044587683 
-0.23987418 -0.2983997 -0.18491668 
0.34953514 0.31214145 0.122876026 
0.09276785 -0.059328012 -0.18040237 
-0.16786486 0.059005745 -0.04233628 
0.08832284 -0.0147564765 -0.1562491 
-0.22544569 0.008703959 -0.12469644 
-0.49887872 -0.059609998 -0.20331691 
0.014758756 0.1165783 0.06604505 
-0.3388357 -0.16978076 -0.3124187 
-0.1437092 -0.12178713 -0.13769335 
-0.1904261 0.05589888 -0.053938158 
-0.45180196 -0.18820594 0.020058153 
-0.44577003 -0.06742182 -0.14814179 
0.15750362 -0.009593919 -0.15594561 
-0.0011751732 -0.052581538 -0.19261283 
-0.04813514 -0.11667563 0.0001513836 
0.12494814 0.15211017 -0.06395276 
0.40327102 0.22557941 0.10276543 
-0.3778992 -0.024506751 -0.047882855 
0.36663395 0.10361525 0.054846115 
0.3719008 0.24647385 0.15044436 
0.32709667 0.30781034 0.13582002 
0.38219607 0.2749262 0.054896332 
0.08802612 0.1462838 -0.056298304 
0.38913575 0.27978438 0.04858812 
-0.046549827 -0.077466354 0.07128611 
-0.07768092 0.0016269088 0.10914199 
0.28395152 0.24848194 0.16827275 
-0.1214176 0.075520635 -0.056563575 
-0.16522372 -0.119657375 -0.20312995 
-0.43004113 -0.016855799 -0.05190248 
-0.34029487 -0.18467829 -0.29531804 
0.35348898 0.25571287 0.14996809 
0.024201153 0.028121723 -0.1863013 
-0.0330338 0.13464393 0.09366301 
-0.31425703 -0.01059672 -0.15513948 
-0.35043404 -0.22621894 -0.23048235 
-0.3200571 -0.26998782 -0.20312954 
-0.026099391 -0.073917344 -0.16910113 
0.010241028 0.12383372 0.03253915 
0.033506647 0.015450226 0.12334763 
0.41340396 0.26234278 0.07828713 
0.30962232 0.18631618 -0.047759764 
-0.05829948 -0.0945511 0.064923875 
-0.2618278 -0.03460621 0.04313263 
-0.32895887 -0.32879037 -0.10079773 
0.10569682 -0.13102822 -0.0010306528 
-0.43203795 -0.06023568 0.030274983 
-0.06975223 0.043105915 -0.1598779 
0.0398412 -0.12917142 -0.07188852 
0.11597011 0.17080642 -0.010872213 
-0.17770866 0.027633255 0.08425991 
0.13531674 0.077425845 -0.16235784 
-0.040453568 0.018161274 -0.17326532 
-0.24320006 -0.07493578 0.061276842 
-0.057785287 -0.14405589 -0.033004634 
0.29663292 0.17370024 0.059237402 
0.19535784 0.0421228 0.03160097 
-0.2749214 0.00019349577 0.0080173155 
-0.27786145 -0.34755582 -0.183049 
-0.31763864 -0.25315505 -0.23191153 
-0.3257811 -0.26883048 -0.22186169 
0.08630862 -0.07465937 0.07522837 
0.14047709 -0.01838499 -0.14431997 
0.02037777 -0.11325618 -0.09903023 
-0.24915162 -0.25607395 -0.24258743 
0.29007676 0.2550364 0.13342182 
0.3246179 0.15480217 -0.12959817 
0.35113528 0.1938516 -0.109233454 
-0.31102613 -0.34106842 -0.2009431 
-0.26196054 -0.03851139 -0.18097208 
0.41101965 0.26118535 0.11807856 
-0.46422485 -0.23408458 0.047556445 
-0.30525535 -0.01932263 -0.15002054 
-0.033296555 0.11109597 -0.09920479 
-0.4790281 -0.10639264 -0.035286807 
0.06359113 -0.08468236 -0.14851724 
0.17048486 0.18015514 -0.0366422 
-0.38818648 -0.105511695 0.04729346 
-0.36972463 -0.2883468 -0.0023958674 
-0.16717196 0.046084434 -0.025202112 
0.359672 0.082391195 0.019443002 
0.41540155 0.25140718 0.087178685 
0.24111904 0.11359611 0.11471612 
-0.18846169 0.007863647 0.05162097 
0.12756646 0.1316734 0.11315768 
0.43082175 0.24735095 -0.031108795 
0.22563559 0.03419638 -0.14358991 
-0.2569096 0.0129374415 -0.119432434 
-0.38059372 -0.13693142 -0.29005343 
0.23830764 0.061053056 0.118883505 
-0.04972627 0.1129629 -0.010913049 
0.018890597 0.103788316 0.07160781 
-0.016745258 -0.121774875 -0.06484485 
-0.22104089 -0.27073494 -0.16086118 
-0.29993734 -0.23524238 -0.28061572 
0.2433705 0.09215822 -0.15061493 
0.08758415 0.036035858 -0.17256229 
-0.33843294 -0.26321992 0.0704805 
0.43329287 0.24182165 -0.028034102 
-0.066715494 0.11971863 0.028667254 
0.108537465 0.15215853 0.1247787 
0.21634227 0.19744352 -0.0681585 
0.20941845 0.038258705 -0.15818267 
-0.054417543 0.0073757656 0.105892606 
-0.047617763 -0.063421875 0.06965909 
-0.323318 -0.3527695 -0.21496263 
-0.02382736 -0.115016654 0.05432552 
0.41949874 0.22074026 -0.10244301 
0.16005944 0.06335884 0.08941812 
0.45689788 0.17773059 -0.071532585 
-0.028205179 -0.10518592 0.06594201 
0.34554973 0.09050169 -0.013034554 
-0.34323138 -0.011038362 -0.036483563 
0.09605679 0.02091404 0.097041726 
-0.15285212 0.044012215 0.053404942 
0.08609595 -0.03449435 -0.1754692 
0.29577604 0.1806044 -0.042166755 
-0.06505812 0.10905403 0.02506425 
0.27976504 0.081299804 0.11896477 
-0.23574239 -0.07498812 0.07019801 
-0.12248931 -0.093873404 -0.20038103 
-0.12541139 -0.077649534 0.06846388 
0.025540508 -0.10070346 -0.12778004 
-0.027526934 0.124599844 -0.06747091 
-0.4168988 -0.21134144 0.10537757 
-0.16268493 0.004653206 0.0995913 
-0.49921536 -0.04546442 -0.09965516 
-0.021048045 0.05505622 -0.16333368 
-0.022887882 -0.06744277 -0.17635964 
0.1143191 0.053087927 -0.13473485 
-0.021500912 -0.120102346 -0.027365496 
-0.12808742 -0.10971502 -0.18549323 
0.3379177 0.12712233 -0.118256584 
-0.30421513 0.00035667414 -0.021589579 
-0.4353005 -0.17950758 0.083520174 
0.24788348 0.16627702 0.079413705 
-0.25236425 -0.16531995 -0.26106653 
-0.06073891 0.06395492 -0.15486199 
-0.3547419 -0.049300883 0.05237224 
-0.09541132 -0.15721108 -0.079684965 
0.24585125 0.26040915 0.14397779 
0.2546189 0.25803122 0.07500535 
-0.10280984 -0.11856955 -0.2110232 
0.27336437 0.22855668 0.0957473 
0.39364702 0.17677447 -0.10573134 
-0.3683206 -0.16763248 -0.25182247 
-0.2979908 -0.0119322045 -0.12212162 
-0.30325556 -0.35195655 -0.17504823 
0.3358523 0.2071919 -0.073494665 
0.21112746 0.20053783 -0.06645718 
0.05930386 -0.017028669 -0.19409136 
0.26868367 0.15956552 -0.14468785 
0.24194646 0.104766175 -0.13623166 
0.03972197 0.031347353 -0.18337919 
0.19959484 0.16884235 -0.087857105 
-0.14159803 0.05510492 -0.12505993 
-0.2825153 -0.24350393 -0.2773753 
-0.46414044 -0.15380245 0.027268592 
0.063980356 0.032513496 0.10194024 
-0.45878214 -0.00743998 -0.07370526 
0.23902257 0.25807226 0.16213761 
0.2984662 0.054123037 0.08353395 
0.37272772 0.25524062 0.039738286 
0.28943574 0.06234566 0.10646456 
0.3441125 0.30170125 0.18145691 
-0.026591657 0.026750918 0.10293318 
-0.08422418 0.001189427 -0.1917507 
0.14254315 0.01595952 -0.09200308 
-0.2640146 0.020467052 -0.018910754 
-0.3877404 -0.17939594 0.09270271 
-0.11999475 -0.080050915 0.09083477 
-0.43424383 -0.040797185 -0.22342038 
0.34444305 0.11295905 0.08887227 
0.082104854 0.18530253 0.06488429 
-0.0356168 -0.07018793 -0.17665793 
0.3559736 0.20537236 0.04212596 
0.28442514 0.052547667 0.098705925 
-0.29632276 0.020127026 -0.0031702234 
-0.2813673 -0.36894268 -0.10022473 
-0.057110764 -0.115908444 -0.107983015 
0.15160452 -0.012110185 -0.15945467 
-0.4155083 -0.21462493 0.08536005 
0.24761969 0.14806587 0.098100826 
0.22781222 0.09044907 0.12606345 
-0.31016767 -0.031148681 0.015943607 
-0.0032078447 0.027769262 0.13287747 
0.2354806 0.20263256 0.15662117 
-0.3514826 -0.3309699 -0.06760235 
-0.4425004 -0.102642 0.07450616 
-0.3032196 -0.01684444 -0.0019841553 
0.24220444 0.18237402 -0.024775162 
-0.39210802 -0.24028933 0.08093826 
-0.14735033 -0.123648725 0.03013155 
0.18146947 0.23472251 0.05870953 
0.21833766 0.04061196 -0.11298118 
0.004671928 0.16324702 0.07823338 
-0.38906434 -0.019072982 -0.02473884 
-0.28277993 -0.027119366 -0.1763107 
0.021738056 0.070241965 -0.14692199 
-0.440969 -0.07531322 -0.12571122 
-0.4178326 -0.005042604 -0.19390634 
0.18513136 0.006776933 0.005935721 
-0.2171244 -0.318607 -0.13058215 
-0.32962286 -0.34866354 -0.17049846 
-0.16153334 -0.1320429 -0.05728592 
0.43051377 0.23833592 0.040066715 
-0.47259814 -0.09484344 0.00014102831 
-0.34371963 -0.050723933 0.022883689 
-0.4330915 -0.24136215 0.028954202 
-0.1301869 0.026600763 -0.16848283 
-0.16987255 0.04567544 -0.10436474 
-0.44811288 -0.13786846 0.004670689 
0.35194892 0.27560088 0.14666337 
-0.09503506 -0.08342343 0.045904987 
0.15209356 0.08136459 0.093986094 
0.27375898 0.07346219 0.12468854 
-0.09595236 -0.13639589 -0.08964633 
-0.33767718 -0.25190955 0.07578945 
0.13079974 0.13495672 0.122976184 
-0.24426475 -0.0033113202 -0.13575032 
-0.25090548 -0.32850772 -0.12304103 
-0.24268062 -0.004273219 0.047838252 
-0.39061615 -0.29539227 0.041266546 
-0.05450612 0.117981434 -0.041761674 
0.17322966 0.03028774 -0.10405193 
-0.1652395 0.020646604 0.09333712 
-0.4908542 -0.05631116 -0.18218745 
0.18160398 -0.044876974 -0.030503096 
-0.06019254 -0.010368748 0.08448733 
-0.42304516 0.010217419 -0.15040064 
-0.0565439 -0.11077431 0.0223719 
-0.16178392 0.054115318 -0.09287639 
0.012275032 -0.093945965 -0.14662422 
-0.43737411 -0.10275329 -0.04901086 
0.3031821 0.25695294 0.16389215 
-0.264696 -0.077918805 0.064184554 
-0.10603078 -0.096352704 0.036324993 
0.22367334 0.03370703 -0.056346346 
-0.041943725 -0.08657255 0.065754905 
-0.32462043 -0.2244568 0.08170466 
-0.25635487 0.013710163 -0.08645737 
-0.3024193 -0.3008017 0.027406452 
-0.13006307 -0.053133365 -0.20548475 
0.13973643 0.04633374 -0.12581192 
0.2069403 -0.0034879157 -0.1280761 
-0.37557155 -0.32613352 0.009684796 
-0.3821 -0.016411075 -0.052095525 
-0.076506145 0.112795845 -0.059133053 
-0.105718724 -0.051842093 0.09960644 
-0.31737605 -0.059405584 0.078458965 
-0.078152426 -0.08464963 -0.18324675 
-0.23224404 -0.30741474 -0.046304673 
0.27759758 0.017968714 0.050080374 
0.27385867 0.24153768 0.10305607 
-0.27660447 -0.1193083 -0.2712794 
-0.37185454 -0.17117926 -0.27252722 
0.4253553 0.23128858 0.06309913 
0.25767764 0.06134814 -0.0808977 
0.1740686 -0.05511336 -0.042833146 
0.1398831 -0.098526135 0.04200351 
0.41101152 0.21238929 0.029287402 
0.08940101 -0.09519134 -0.1026614 
-0.3843288 -0.09647748 0.067134045 
0.25422323 0.28206453 0.123867184 
-0.31678647 -0.2483744 -0.28533748 
0.25544944 0.106430836 0.11333202 
-0.08156019 -0.13534793 -0.06391323 
-0.30910707 -0.27972573 0.0502281 
-0.042708397 -0.12772915 -0.035447337 
0.2683931 0.09683189 0.11807029 
0.39049602 0.27984127 0.03263719 
0.17538553 0.096766844 -0.15681475 
0.28405136 0.20528825 0.14293139 
0.13429499 0.0570701 -0.16150628 
0.32226852 0.31540453 0.1773726 
0.19033052 0.08919793 0.08182159 
-0.06856139 0.0020990707 0.130992 
-0.3170601 -0.013561489 -0.014770249 
-0.2693098 -0.3396863 -0.19807556 
-0.1429464 -0.1507083 -0.093434885 
-0.47802398 -0.04349063 -0.017715644 
0.124201775 0.075814776 -0.17198367 
-0.14910124 -0.10535695 -0.1767051 
0.11793142 0.21017122 0.08577581 
-0.20825613 -0.05627426 -0.22781722 
-0.14690417 -0.115516104 -0.1277774 
-0.44500676 -0.17032586 0.0779945 
-0.5000158 -0.05040986 -0.082238734 
-0.0235327 0.09333693 0.06867637 
-0.335442 -0.22701702 -0.2836411 
0.07974852 0.088514954 0.08454204 
0.2493515 0.19235833 -0.060613908 
-0.04777333 -0.11986682 -0.065683715 
-0.038010903 0.119973995 0.06661591 
0.27538922 0.10182795 0.113711506 
-0.2738898 -0.23541598 -0.28143743 
-0.046293084 0.118071355 -0.0032216746 
-0.48413554 -0.048868567 -0.016812848 
-0.33091983 -0.14134198 0.057693806 
-0.14175877 0.04834523 0.08944507 
-0.48091748 -0.059002846 -0.018783363 
-0.22041088 -0.0013592297 0.08365126 
0.07018261 -0.07279179 0.08599754 
-0.25961787 -0.123734966 -0.25805742 
0.19655053 0.030922972 -0.09161469 
0.2235706 0.111596495 -0.1418975 
-0.26184508 -0.20266701 -0.26008356 
-0.30607736 -0.37116563 -0.07325462 
0.10132866 0.017058434 0.11272209 
0.15787734 0.0047721723 -0.16081527 
-0.10202357 -0.06513272 0.05313973 
0.13413237 0.00021321973 -0.0975732 
-0.06389019 0.106585525 -0.041783523 
0.20987286 0.18497159 0.14554717 
-0.46010917 -0.032856185 -0.003812314 
0.10504382 0.024416858 -0.1483023 
-0.13260941 -0.025250264 0.067237765 
-0.43281817 -0.10028343 0.06288244 
0.23367502 0.05606163 -0.010009509 
-0.31921172 -0.24583255 -0.23819485 
-0.26093882 -0.0037979744 -0.15922445 
0.26369396 0.1934981 -0.045548063 
0.13640185 0.04156101 0.10086029 
-0.3122862 -0.1988743 0.07593717 
0.008154914 0.113638714 -0.0925356 
0.12272061 0.18490955 0.035097245 
-0.053122032 0.017081745 -0.17908767 
-0.2832609 -0.29464108 -0.2560291 
-0.04994321 0.0050064647 0.114471056 
-0.117253385 0.053333398 0.058772705 
-0.36411083 -0.21467127 -0.2661092 
-0.4787056 -0.11025301 -0.023865344 
0.06033532 0.13464594 -0.08654863 
-0.27825877 -0.016398722 0.0026762392 
0.33081514 0.14262778 -0.119535185 
-0.28550255 -0.014310566 -0.13837989 
-0.18320952 0.04585834 0.049126275 
0.08872549 0.016250836 -0.15170534 
0.2749801 0.04597642 -0.12396663 
0.1764934 0.17906259 0.1460022 
0.038225394 0.13540371 -0.028291767 
0.39240402 0.19444989 0.04277736 
0.4144352 0.13896084 -0.06871409 
-0.20678648 0.018950846 -0.12708573 
0.1418705 -0.0977679 0.003586635 
-0.4708053 -0.08073516 -0.064003766 
-0.25740814 -0.043153934 0.052678376 
-0.3836926 -0.053216387 0.019354723 
0.10314416 -0.1097633 0.018214345 
0.20509633 0.09173203 -0.16538696 
0.27008563 0.03593479 0.093429975 
-0.0016287931 -0.14250983 -0.021504732 
-0.16941857 0.005573888 0.05531021 
-0.31732678 -0.050434086 -0.21466868 
0.24273649 0.17660587 0.12752075 
0.40563896 0.25568727 0.020642258 
-0.0480192 -0.14567485 -0.02112227 
0.25076297 0.2343379 0.06606879 
0.31787577 0.30145866 0.18949078 
-0.29025778 0.022960238 0.023248332 
0.29215622 0.11709387 -0.12222371 
-0.43141046 0.0071662483 -0.15059184 
0.23008911 0.048772335 0.11130888 
0.04787276 0.04281856 -0.19856131 
0.21067394 0.104463965 0.10053988 
-0.3201017 -0.2990704 -0.19783644 
-0.035950404 -0.0922218 0.051564895 
0.10479681 0.21781021 0.111693874 
0.22114073 0.02391364 -0.0071799913 
0.36983275 0.2714147 0.07666448 
0.2385771 0.059013523 0.11917124 
-0.1791483 -0.10885954 0.026703082 
-0.032979675 0.020969627 -0.17282236 
0.28755903 0.2500294 0.13443817 
-0.34026197 -0.3430547 -0.062968455 
-0.302174 -0.20323192 0.06257559 
0.40134025 0.22465438 0.10705307 
0.17927507 0.023398316 -0.15103763 
-0.4642127 -0.17868765 0.031704605 
0.06463191 -0.061857484 0.099391855 
-0.1653701 -0.1306247 -0.20672667 
0.03336913 -0.12341361 0.009240933 
0.06127106 -0.13306496 -0.003301762 
-0.47263694 -0.07710487 -0.12347281 
-0.35340294 -0.188841 -0.26060915 
-0.42031136 -0.08995654 -0.24037994 
0.35318592 0.13436808 0.06758142 
-0.42883873 -0.16379306 0.0015681061 
-0.34486702 -0.34571484 -0.030236349 
0.073572874 -0.07383414 -0.15629916 
0.36640066 0.10145331 0.036086094 
0.047313523 0.13446786 0.029017879 
-0.31354967 -0.32740238 -0.23291577 
0.34031767 0.1482937 -0.11169458 
0.07550399 -0.039973617 0.096829556 
-0.30518433 0.01413531 -0.037908893 
-0.48463812 -0.08872316 0.012245299 
0.23759715 0.0058131814 0.04986769 
-0.008408328 -0.11115767 0.042792946 
-0.05329804 -0.082919255 -0.15623967 
-0.46998298 -0.07813621 -0.102172844 
-0.48100385 -0.084412925 0.02346374 
0.1128106 -0.011225382 -0.14788136 
0.37463146 0.23282751 0.0398942 
0.17847809 0.23082158 0.052344218 
0.4268398 0.19903748 0.040189963 
0.25734133 0.18884736 -0.10335434 
0.31374797 0.10522595 -0.089411505 
-0.29474485 -0.12199336 -0.26721624 
0.07467605 -0.11700664 -0.07991295 
0.13759248 -0.012690594 -0.17686178 
-0.09870795 -0.10323464 -0.17360531 
0.27922583 0.049632393 -0.11177422 
0.12826267 0.19113691 0.05198181 
0.42592016 0.24216911 0.005797692 
-0.095865525 -0.098707646 -0.16691802 
0.34907603 0.14882806 -0.04195658 
0.019265661 -0.1440969 -0.035326295 
0.46455565 0.19986622 -0.07061256 
0.30402744 0.04464803 0.063113116 
-0.06560334 -0.08212919 0.06351662 
-0.35007408 -0.027487705 -0.0016774281 
0.14575046 0.108371526 -0.11628684 
-0.007460919 -0.10879009 0.041972294 
-0.42410856 -0.049400963 0.015055688 
-0.4524705 -0.1311561 -0.008210102 
-0.096092306 0.08694388 0.008402788 
-0.20016749 0.031794004 -0.13545308 
0.26932666 0.079500794 0.11491752 
0.187588 -0.01829455 0.003166563 
-0.2448869 -0.33129704 -0.113140814 
0.21387461 0.035489313 -0.14985734 
0.09748685 0.170485 0.05563914 
-0.16906066 0.009973127 -0.15992343 
0.19955064 0.2678863 0.10741819 
-0.032957762 -0.11554215 -0.112834185 
-0.20074478 0.01949146 -0.12239283 
-0.16705558 -0.123229265 -0.1408505 
0.11068643 0.17964455 0.05543333 
-0.10084027 0.03279935 -0.16498987 
-0.1692053 -0.009267769 0.09774662 
-0.25169817 -0.03406271 -0.17941882 
-0.34898052 -0.17584366 -0.23766527 
0.30354357 0.24655963 0.1536651 
0.020030964 0.096182555 0.061565444 
-0.081424095 -0.11687234 -0.018202858 
0.1546547 0.050520163 0.095777206 
-0.032953113 -0.09389007 -0.15771218 
0.06419601 -0.0021848758 0.1106811 
-0.097900905 0.03248843 0.11183799 
0.41087896 0.16420062 -0.05559872 
-0.14294164 -0.0967314 0.043405943 
0.14024618 -0.014648157 0.049498484 
-0.3025888 -0.2615059 -0.27673206 
0.048691828 -0.056927923 0.10606105 
0.36335605 0.074751556 0.03220938 
-0.37498242 0.016202549 -0.13661209 
0.02116635 -0.0461319 -0.18366866 
0.13117795 0.15650234 -0.04394146 
-0.37455752 -0.20143618 0.08853718 
-0.33745098 -0.034579024 -0.024591561 
-0.24239255 -0.31453007 -0.19461136 
0.2288968 0.026972996 0.11168514 
-0.4527051 -0.2639763 0.06529019 
-0.19240598 -0.007843098 0.052592654 
-0.32547942 -0.10617564 -0.26144686 
-0.2082631 -0.01601744 0.079204984 
-0.07237072 0.10678865 0.045730323 
-0.09366442 0.027467337 -0.17323542 
-0.2587019 0.018388651 -0.057702385 
-0.01227694 0.03584685 0.09561731 
0.13977839 0.19867364 0.044806007 
-0.25636438 -0.30526674 -0.23390846 
0.10719605 0.17830491 0.12379264 
-0.086179145 -0.1106881 -0.030250657 
-0.28943726 -0.02572299 0.019949581 
-0.28131455 -0.3691742 -0.09964703 
0.3283698 0.13829733 -0.11892841 
0.032330174 0.09929844 0.05009016 
0.20554826 0.04066564 0.10391964 
-0.13260385 0.04637842 -0.14531705 
0.0796206 -0.037852116 -0.19059043 
-0.09020133 -0.04531622 0.07769395 
0.14923757 -0.08731196 0.026749466 
0.13803434 0.24043882 0.09936006 
0.057073005 0.067645155 -0.15659408 
-0.021575324 -0.110024706 -0.14373182 
-0.12906237 -0.06941287 0.061251562 
-0.07216505 -0.028104674 0.10835326 
-0.21982758 0.028807413 -0.016959934 
0.19764765 0.083814025 -0.14891882 
0.212272 0.055180416 0.111994736 
-0.49250868 -0.06406345 -0.057168946 
0.06472323 0.031168856 -0.20140165 
-0.35671788 -0.16394259 0.08643001 
-0.22687694 -0.046089534 0.09268789 
-0.32256258 -0.35892662 -0.06777443 
-0.3527346 -0.33692145 -0.020428993 
-0.050107237 -0.062028848 0.0952881 
0.11553131 0.0502179 -0.1690336 
0.4087492 0.2595802 0.009791786 
0.18522829 0.11081609 0.09969839 
-0.068877235 -0.14354976 -0.043290943 
-0.386181 0.0030193604 -0.13282864 
-0.27219075 -0.29293182 0.04357605 
-0.15336594 0.056755733 0.057856407 
0.14580151 0.119329266 0.11640589 
0.2548959 0.028946301 0.071236186 
0.278984 0.20778726 0.1306288 
-0.2335363 0.004211341 -0.15885204 
-0.15902087 -0.1207368 -0.22909755 
-0.36627018 -0.16702203 -0.2529727 
-0.023387685 0.0743517 -0.14329262 
-0.37725705 -0.32543856 0.008688467 
-0.3281282 -0.29771456 -0.27436715 
-0.47496408 -0.0015848163 -0.09966506 
0.18189447 0.100484505 -0.15875451 
0.35348406 0.280293 0.18999334 
-0.21049047 -0.009887424 -0.16677278 
-0.33199078 0.0008159463 -0.10646542 
0.38268918 0.15139964 -0.090771586 
-0.13045795 0.04741562 0.07887323 
-0.124925815 0.012832343 0.093693495 
0.27733156 0.25990492 0.0882939 
0.13550198 0.13804442 0.106359966 
-0.16866665 0.077441216 0.06694898 
-0.0078028752 0.045597903 0.08646825 
0.18536153 0.05674509 0.05341115 
-0.36621556 -0.21326073 -0.25727123 
-0.4709848 -0.0417809 -0.17094626 
-0.36910185 -0.19832236 0.08462167 
-0.20079394 0.047770854 -0.09799676 
-0.33056828 -0.27365854 0.060918443 
-0.12632698 0.082717925 0.060375985 
0.23344061 0.1840022 -0.09114229 
-0.3382223 -0.34821793 -0.13720524 
-0.40498072 -0.06500693 0.041203734 
-0.28757286 -0.019734938 -0.16441494 
-0.08905176 0.08098322 -0.11850451 
-0.16184974 -0.105557434 0.022827763 
-0.33832607 -0.25578403 -0.22176652 
-0.0385589 -0.06630169 0.08555674 
-0.20126286 0.025182609 -0.11934937 
0.12762672 -0.107001655 0.0057198927 
-0.13271217 -0.013319993 0.08423314 
0.3986018 0.12314654 -0.077079676 
0.11903209 0.08907434 -0.19502258 
-0.31473497 -0.05420391 0.03529612 
0.18890777 0.16931243 -0.08405328 
0.1207018 0.0024509244 0.10860048 
-0.29902387 0.0001536929 -0.0912075 
0.36415145 0.08500009 0.023074089 
0.12636578 -0.042206462 -0.14698996 
-0.029694548 0.1154466 -0.03172708 
0.35283816 0.14542457 0.041707795 
-0.26188982 -0.044897825 0.04881238 
-0.4085192 -0.08630827 -0.26245007 
-0.22494744 -0.29520842 -0.18989865 
-0.0725906 -0.11010427 0.021021202 
-0.24667217 0.033335157 -0.08280474 
-0.14050725 -0.13325499 -0.12657346 
-0.2203427 -0.05414355 -0.2377998 
0.37939456 0.14979853 -0.09188264 
-0.20395848 -0.045047846 -0.22377673 
-0.4345766 -0.18456522 0.078322224 
-0.28564754 -0.24549022 -0.2722278 
0.15066369 -0.04183917 -0.13707924 
-0.47189662 -0.089271255 -0.0415837 
0.03759346 0.029904507 0.097775206 
-0.13751496 -0.1280351 -0.022085514 
-0.13580634 0.060257223 0.020092981 
-0.20663416 0.051206622 -0.08207206 
0.4316745 0.2384207 -0.0032246346 
-0.47389054 -0.11821739 0.04610151 
-0.43739405 -0.07422149 -0.13513139 
0.20735285 0.018948311 0.028787313 
-0.1561996 -0.108499415 -0.18923782 
-0.4161107 -0.17245065 0.0985735 
0.057860233 0.13203703 -0.07532767 
-0.12660044 -0.13840629 -0.2204539 
-0.44479874 -0.05690641 0.022489697 
0.03741813 -0.07945892 -0.16934082 
-0.2282481 -0.04541511 -0.23401596 
0.29654706 0.085022874 -0.12241834 
0.37798777 0.14567778 -0.08390439 
-0.27299684 -0.0513 0.051550016 
-0.05559301 0.100489795 0.043037567 
0.17788236 0.2145184 -0.004464263 
-0.3635636 -0.025588466 -0.09573779 
-0.12587057 -0.061169766 0.068231694 
0.069904424 0.07422219 -0.14561893 
-0.108472995 0.089434914 -0.046990734 
-0.3538126 -0.010077363 -0.16887249 
-0.0527088 0.10067118 0.099742524 
-0.21732882 0.034212947 -0.08083485 
0.37989777 0.12342396 -0.07812159 
0.35434958 0.20216182 -0.07028983 
-0.28139013 0.019133674 -0.058401093 
0.40973186 0.14204252 -0.07385516 
-0.4130858 -0.020052115 -0.016339231 
0.03884515 0.18900442 0.06966255 
-0.28411585 -0.3697079 -0.120097384 
-0.40467522 0.0042535183 -0.044034734 
-0.3188529 -0.12010339 -0.28510895 
-0.16754742 -0.032479957 0.073485404 
0.33386078 0.0652345 0.08967227 
-0.11951256 0.05841572 -0.15026996 
0.10705341 0.17285548 0.11871676 
-0.318012 -0.19294937 -0.30192554 
0.38896662 0.20369156 -0.10576406 
-0.33144462 0.005394397 -0.026702592 
-0.46836513 -0.08743126 -0.08699498 
-0.22212742 -0.064918816 -0.19268775 
-0.44303212 -0.14202255 0.081683725 
-0.2598776 0.044114757 0.011532771 
0.39727762 0.23593436 0.008155915 
-0.31067342 -0.017596923 -0.14810945 
-0.07091637 -0.1217382 -0.036937065 
-0.046703488 0.12352738 0.06395598 
-0.10564331 -0.10460432 -0.17057364 
-0.34922963 -0.20095393 -0.27851945 
-0.29585811 -0.053398732 0.050049633 
-0.22232927 -0.28627488 -0.15282339 
-0.15012406 -0.14450452 -0.123965144 
0.24837023 0.20025736 -0.059480287 
0.16498238 0.21975522 0.063961565 
-0.13241552 0.0656634 0.012980117 
0.20189904 0.09578621 0.09793236 
0.22715156 0.1785991 -0.08240368 
-0.01322522 0.10523611 0.075501785 
0.31313327 0.04833862 0.014718766 
-0.08335538 -0.16679412 -0.06861236 
0.30279833 0.20998682 -0.06826417 
0.21176389 0.09178189 -0.1536327 
-0.28664297 -0.007849361 -0.10852669 
0.02603072 0.053395934 -0.15121338 
0.4341864 0.17748232 -0.086636014 
-0.084383525 0.02256595 0.11239352 
0.3155149 0.08370809 -0.09624117 
-0.12729508 0.008836872 -0.17083989 
-0.043902464 0.027396707 0.09717954 
0.34515008 0.16998363 -0.11077547 
-0.32161802 -0.25017157 -0.21361291 
-0.054508694 -0.11396522 -0.10452774 
0.22360633 0.06068079 0.11469046 
-0.4406423 -0.17036669 0.06879467 
0.32981893 0.14658178 -0.008559974 
-0.29960784 -0.23346964 0.053456645 
0.007958081 -0.0668644 0.078602634 
-0.3150794 -0.2032641 0.07025705 
0.089113906 -0.07978929 -0.11876325 
0.0657269 -0.088695385 -0.14629558 
0.31540525 0.06311646 0.108858764 
0.2376772 0.017187625 0.023063438 
0.19594808 0.14255089 0.13186954 
-0.327052 -0.05841882 0.06513152 
-0.11142634 -0.07080799 0.07959641 
0.17130135 0.019158382 -0.1417732 
-0.07814895 -0.0026524449 -0.19042914 
-0.40072155 -0.0025151256 -0.121101975 
0.14323676 0.16235407 0.14207767 
-0.031540785 0.14553335 0.08052536 
-0.4601846 -0.120467484 0.0531568 
0.2789122 0.22726168 0.13321859 
-0.1844304 0.04695782 -0.0038326038 
-0.31117445 0.0067318175 -0.071289755 
-0.2842205 -0.030296309 -0.16492821 
-0.11029889 -0.124708705 -0.018362654 
-0.21150175 0.053594224 0.035934813 
0.36223593 0.11572862 -0.06576886 
-0.2585646 -0.3149768 -0.031238746 
0.17472818 0.14553028 -0.10023916 
0.3816789 0.15147442 -0.056202017 
0.20577194 0.045041595 -0.1175265 
0.10784869 0.19672674 0.10125891 
-0.41262418 -0.0967799 -0.25130582 
-0.15350884 -0.13707508 -0.04522413 
-0.039353628 0.027235944 -0.16574831 
0.39866677 0.20794103 0.035671882 
0.29728147 0.20286934 -0.089900136 
0.3107158 0.18783401 -0.12567198 
0.0683464 0.05726721 0.088199064 
0.28732833 0.030266132 0.02217968 
0.37622997 0.17849171 0.04833106 
-0.37457126 -0.26686594 0.08820515 
-0.107963435 0.08435299 -0.10865857 
0.19794488 0.00546263 -0.111039035 
-0.29112634 -0.21126135 0.052440617 
-0.43997988 -0.071641326 -0.1794251 
-0.07193786 -0.032224566 -0.1942111 
0.16486487 0.24787918 0.08492681 
0.026739623 -0.11063118 0.049967423 
0.009590246 0.051025163 -0.15858519 
0.2868564 0.15953973 -0.12405483 
-0.07211627 0.015953865 0.0905223 
-0.2155767 0.049667105 0.06420348 
-0.19795282 -0.055854082 -0.23074327 
-0.23960045 -0.04129864 -0.23174733 
-0.24726345 -0.088388935 0.029557645 
0.2977592 0.3149728 0.15146367 
0.38169035 0.18380028 -0.06266726 
0.23588765 0.09186483 -0.14760984 
-0.365935 -0.3271533 -0.01875789 
0.09686226 -0.07855871 -0.11294887 
0.20845306 0.072405085 0.12498115 
0.34911832 0.08951975 0.0947214 
-0.17823298 -0.095695525 -0.20424803 
0.07150905 0.012502024 0.10611728 
-0.39896253 -0.25899857 0.076732524 
0.06980381 -0.12923594 0.00057963654 
0.1399796 0.18945867 -0.012708747 
-0.09674646 0.06823386 0.09305578 
-0.34185788 -0.32850242 -0.19363292 
0.043740813 0.051093806 -0.18571451 
-0.13380073 0.056431055 0.02917672 
-0.11266745 -0.11665643 -0.022747708 
0.16744919 0.2303465 0.051121075 
0.14531222 0.09466564 -0.11112352 
0.18278559 0.11066539 -0.15273 
-0.060169883 0.089753576 -0.11749162 
0.021880772 -0.124814324 -0.09121207 
0.37813222 0.18332966 0.052751366 
0.28306603 0.09252982 0.10763706 
-0.4361247 -0.20453952 0.058946732 
-0.122911975 -0.14135979 -0.07534139 
-0.45403728 -0.0525255 0.026922563 
-0.36890846 -0.0013584904 -0.174698 
-0.34898064 -0.19950266 -0.2521963 
0.3889724 0.19297573 0.05817105 
-0.17028569 0.062172733 -0.04673755 
-0.06834088 -0.12989342 -0.05496096 
-0.10556291 -0.13170126 -0.1208019 
0.07167906 -0.100693345 -0.09858698 
-0.40098754 0.010854985 -0.056472432 
-0.13685346 -0.13779692 -0.12414829 
0.35050637 0.29801628 0.121165395 
-0.39469028 -0.21964069 0.09234867 
-0.3805563 -0.06776784 0.032511517 
0.27035248 0.21151777 0.14549531 
-0.45032892 -0.18424366 0.023540506 
-0.2060932 -0.23851907 -0.18819173 
0.43801367 0.20515582 -0.09552549 
-0.02173867 -0.0041897483 0.09909664 
-0.48575342 -0.044111107 -0.059223272 
-0.3183698 -0.2888295 -0.20895118 
-0.04388276 -0.04811717 -0.18490198 
-0.3970237 -0.023169218 -0.0021752762 
-0.020385422 0.07401826 -0.14570774 
-0.37762824 0.0103706485 -0.11979292 
0.15566625 0.19066231 -0.021392519 
0.0622128 0.12133453 -0.098912515 
-0.030326732 -0.099259965 0.06202094 
0.42501068 0.23465139 0.0326966 
0.1473312 0.092298396 -0.1805967 
-0.11786089 0.051836595 0.06368672 
-0.18024553 0.06664778 0.057677273 
-0.27817926 -0.14917758 -0.2660955 
-0.07961903 0.018007496 -0.17212822 
-0.08957585 -0.10566032 -0.121828884 
0.116356924 0.05326631 -0.14282063 
0.23365755 0.0076466314 0.05770292 
0.23773168 0.040516637 0.10057755 
-0.16410717 -0.13590968 0.022823883 
0.2034077 0.0157462 -0.04981073 
-0.3494051 -0.27318284 -0.24834445 
-0.25971004 0.005042908 0.016634686 
0.15110117 0.16053277 -0.061859295 
0.33135447 0.32326406 0.13216592 
-0.40898964 -0.30304042 0.054490786 
-0.13336658 -0.029970169 0.0656684 
0.16185403 0.16613255 0.13756111 
-0.33008268 -0.34447423 -0.13166851 
0.15309028 -0.046285614 0.02200676 
-0.18539426 0.027489286 0.025870956 
-0.3182913 -0.35959846 -0.07542904 
0.15109895 0.22661678 0.12970658 
-0.28733078 -0.30948514 0.0011567087 
-0.0240975 0.12003761 0.05406457 
0.2545964 0.17789564 -0.0074755643 
-0.12784675 -0.11052658 -0.17668149 
0.2100616 0.02133366 0.04250087 
-0.042444997 0.015719922 0.11164964 
-0.3198296 -0.056228798 0.057235803 
0.12659115 -0.065421425 0.07281796 
0.32570574 0.04170539 0.033840947 
-0.46829715 -0.069585964 -0.2063388 
0.13299368 0.21047653 0.080780074 
0.024990655 -0.02494418 -0.18437748 
-0.047310833 -0.1025266 0.03632871 
0.2717086 0.04617897 0.006325386 
-0.15155198 0.052784465 0.019102247 
0.35775042 0.18431598 -0.069252804 
0.29594684 0.03701005 0.090314046 
0.055012137 0.18563099 0.07442478 
-0.40141526 -0.08862763 -0.26735896 
0.021472592 0.14823139 -0.03110505 
-0.017027726 -0.12142258 -0.06543976 
-0.20855834 0.047420993 -0.078592554 
-0.4000906 0.00570495 -0.052674387 
0.0061777597 -0.11841035 0.024302874 
-0.00680716 -0.11918066 -0.070922896 
-0.34656292 -0.1725861 0.09610478 
-0.34145015 -0.024267396 -0.02279897 
0.36353818 0.074207485 0.047075298 
0.20210803 0.024996955 -0.08602258 
-0.45022836 -0.12860566 -0.0040508634 
-0.07063777 0.09797435 -0.108180374 
-0.12487883 -0.12836789 -0.23247057 
-0.40219167 -0.29599833 0.039800443 
-0.23191687 -0.05635002 -0.19171569 
-0.25744835 -0.04205255 -0.22621264 
-0.3516384 -0.27750188 -0.27022648 
0.013360929 -0.10476619 -0.12984937 
0.34051302 0.108365625 -0.01473403 
-0.4305361 0.007379786 -0.12921265 
0.07613687 0.021146404 -0.16531104 
-0.23615438 -0.3263326 -0.07998649 
-0.01824372 0.08754196 -0.13266142 
-0.27977434 -0.25389966 0.03939724 
-0.16218212 -0.030553918 0.07259587 
0.23455136 0.032477222 -0.13827293 
-0.37611353 0.017713238 -0.13319138 
-0.050533775 0.12208249 -0.10054811 
-0.10109221 -0.09579805 -0.1823506 
-0.34046945 -0.0468371 0.011213162 
-0.12725447 -0.123061486 -0.00649224 
0.24409606 0.26824436 0.14928277 
-0.3270645 -0.21945943 -0.2967651 
-0.011515057 0.11941337 -0.08392728 
0.08589747 0.17745009 0.06946081 
-0.23795119 -0.026351523 -0.18161616 
-0.1271066 -0.12913603 -0.0405419 
0.13737643 0.057073507 -0.12381082 
-0.2259601 -0.30233097 -0.064796366 
-0.38229913 -0.015360726 -0.18081939 
-0.1200452 0.060220934 0.055689856 
-0.12560374 -0.025232797 -0.20126544 
0.37674308 0.28392664 0.11126936 
-0.21469416 -0.006256729 0.08583996 
-0.43754557 -0.001033044 -0.14192748 
-0.45061067 0.006240879 -0.15329935 
0.113609396 0.21516049 0.074615754 
0.1066195 0.20603774 0.08160001 
0.3500418 0.14554399 -0.11264581 
-0.035641395 -0.1307205 -0.03946635 
-0.21560797 -0.052063584 -0.23190813 
-0.02140985 0.1474818 0.08033904 
0.38500828 0.2249065 0.08645602 
-0.24083222 -0.3264329 -0.15921326 
0.3729982 0.29271108 0.15510891 
0.27811506 0.029525716 0.07694054 
-0.2359597 0.040352024 0.015023731 
-0.22476739 -0.002076284 -0.16476673 
-0.34933543 -0.013824785 -0.22189522 
0.32596946 0.11679414 -0.089958616 
-0.13449924 -0.122506544 -0.15002835 
0.13360234 -0.02837663 -0.15685938 
0.10839303 0.14657344 -0.05738829 
-0.48408723 -0.039765168 -0.08535837 
-0.4891038 -0.070042595 -0.16509683 
0.0024507015 -0.101026505 -0.13354713 
0.31480604 0.036716014 0.026401412 
-0.14683022 0.027200345 -0.16511007 
0.22374023 0.1524454 -0.12283436 
0.2662632 0.16939344 -0.14696787 
0.24563202 0.008522533 0.044572018 
-0.4600292 -0.08352422 -0.060441185 
0.26367375 0.27927938 0.096266374 
-0.21511306 -0.04267285 -0.19547078 
-0.17010044 -0.08415682 0.048311662 
0.26152942 0.083746664 0.11567216 
0.37350655 0.12249066 -0.06409685 
0.15341564 0.1104491 0.116217315 
0.1193483 -0.048002 0.08299177 
-0.44408923 0.0044170017 -0.13051884 
-0.43148768 -0.0845702 -0.24190013 
-0.4339225 -0.07227316 -0.18208222 
0.068745755 0.102813035 0.074464634 
-0.24923359 -0.31167164 -0.14140852 
0.17086954 0.051016346 -0.120804 
-0.27753687 -0.32041106 -0.2306683 
-0.35424107 -0.28136063 -0.25036937 
-0.08489146 -0.04341911 0.076046266 
-0.2414854 -0.2877202 -0.21634568 
0.22308797 0.012775029 -0.115121655 
-0.3993917 -0.31498417 0.043151196 
0.080096416 0.10504865 -0.112742595 
0.47755834 0.20167905 -0.05935481 
-0.07263132 0.08341314 -0.12701394 
-0.113724165 0.004781834 -0.17506558 
-0.49087754 -0.03898173 -0.088525474 
-0.4771088 -0.07355494 -0.1279201 
-0.20827092 -0.044901043 0.064627476 
-0.37685025 -0.04933185 -0.012728548 
-0.082240805 -0.106506996 0.04542545 
-0.05648097 0.005826818 0.119565226 
0.39744586 0.21271011 0.086490706 
-0.06449292 0.088135965 0.085663915 
-0.38179445 -0.25371435 -0.006103939 
-0.0017953683 -0.10769146 0.04182551 
0.22010322 0.21179503 0.008232896 
0.065909766 0.11083903 -0.10926226 
-0.38370234 -0.062227603 0.041407883 
-0.09258503 0.10726907 -0.05322166 
-0.06087946 -0.12068454 -0.13641047 
0.16546045 0.1192261 0.11479801 
-0.24457924 -0.32639137 -0.10875047 
-0.35422334 -0.015729804 0.013561556 
0.25030792 0.0500008 0.0921799 
0.1485736 -0.08288636 0.0069977855 
-0.0436984 0.09322085 -0.12108491 
0.1777795 0.15361206 -0.09048186 
0.17500861 -0.035630766 -0.000357138 
0.058968697 -0.12760118 -0.040245175 
0.24638857 0.17641413 -0.10683244 
0.066699274 0.12543793 -0.07410861 
-0.4271699 -0.027699994 -0.24082527 
-0.22136536 -0.3032393 -0.16039 
0.24779528 0.28263554 0.11045138 
0.29066533 0.22027306 0.10340917 
-0.059567202 0.1061477 -0.10408153 
0.044340856 -0.119119816 -0.05836207 
-0.12014052 0.04303427 0.08431185 
0.3256041 0.11929414 0.09247525 
-0.44342294 0.002230927 -0.06829515 
0.122980714 0.21108554 0.07950461 
0.13242607 -0.06548129 -0.09948433 
-0.4250852 0.00014707752 -0.102633 
0.14030018 -0.060390122 -0.07872664 
0.27255732 0.10347762 -0.12705056 
-0.042647824 0.09891228 -0.109563366 
-0.2957229 -0.11478366 -0.26096848 
0.028499328 -0.11697606 0.035468023 
0.17437711 0.23646113 0.10605441 
-0.060069073 0.11611983 -0.081707835 
-0.29262412 -0.3533145 -0.15646617 
-0.263494 -0.3559466 -0.1552478 
0.3057778 0.27245355 0.19015093 
-0.111432 0.06503779 0.034620844 
0.2561581 0.078680575 -0.123241946 
-0.0065742303 0.09387102 0.07085328 
-0.29483068 -0.24191159 0.050569896 
-0.2202653 -0.27985096 -0.14234215 
0.1310866 0.0698076 -0.12296401 
-0.32357153 -0.009247504 -0.13999785 
-0.1251105 0.0517147 0.06813786 
-0.49671617 -0.057488795 -0.09916941 
0.056181684 -0.13072082 -0.05362077 
-0.3083925 -0.2263047 0.08041328 
0.27035838 0.20101188 -0.11250676 
-0.3599925 -0.32164487 -0.05412761 
0.05966149 -0.09720211 0.07217911 
0.18025523 0.096309766 0.09160683 
-0.018698419 -0.12159949 -0.064389855 
-0.11729499 -0.1597854 -0.05213123 
-0.357399 -0.16102618 -0.29493564 
-0.42617205 -0.20727497 0.07969949 
0.0037758078 0.02170069 -0.182325 
-0.42241177 0.0023223558 -0.08210181 
-0.31775412 -0.17946142 0.07703868 
-0.08931971 0.063860565 -0.1513954 
-0.47452763 -0.04874641 -0.20525318 
-0.23444642 0.046511184 0.032565136 
-0.26183534 -0.24029946 -0.26209885 
0.06538568 -0.08320556 0.08960357 
-0.3474321 -0.110829264 0.038621698 
-0.1591236 0.019679965 0.0919247 
-0.46521172 -0.075908795 -0.08451697 
-0.47220233 -0.13320652 0.006094641 
0.31782255 0.21635218 -0.0783581 
0.056070585 -0.0568824 -0.17572494 
0.07967215 -0.087830916 0.08538615 
-0.2936535 -0.3581019 -0.08658629 
0.10606717 -0.03263803 -0.15036517 
-0.45549607 -0.08714214 0.052025042 
-0.23011048 0.047097478 0.024588281 
0.021062702 0.12879919 0.0037938775 
0.04892481 0.03517662 -0.20101273 
-0.07776622 -0.016622895 0.07181814 
0.1947997 0.0645122 0.0856852 
-0.13915512 0.051491443 0.089661166 
-0.032054495 -0.11192548 -0.13089699 
0.35685253 0.2593049 0.15717864 
0.15806346 0.010486139 -0.094354846 
-0.33578178 -0.013053346 -0.05701947 
0.23515256 0.061119214 -0.1218845 
-0.10751699 0.095293365 0.043902084 
-0.36095172 -0.017405534 -0.12243661 
-0.018359138 0.08931411 0.070579045 
0.05331411 0.08415492 0.09119833 
-0.15980512 -0.09537389 -0.2217269 
0.051150825 -0.10568623 -0.10834057 
-0.35514587 -0.27142555 -0.25749096 
-0.4750768 -0.12235915 0.035245553 
-0.450716 -0.09374034 -0.052416243 
0.17418148 -0.057609312 0.01600934 
-0.09106186 -0.036692355 0.08564643 
-0.20973162 0.04791067 -0.0628092 
-0.35498103 -0.098412514 -0.2853574 
-0.050640248 -0.06470287 0.09013015 
0.15579201 0.065329365 -0.121694975 
-0.24277346 0.0128835 -0.10494713 
0.009678015 -0.13436602 -0.023475725 
-0.030512933 -0.055992845 0.08764988 
0.22609052 -0.0022864807 -0.12144742 
0.21612242 -0.00039976742 -0.120586134 
-0.4177892 -0.2685991 0.056830995 
0.30498287 0.114276454 -0.11578048 
-0.32392368 -0.32189804 -0.12102552 
0.15379865 0.17994498 -0.018749299 
0.15017295 0.16145529 -0.080618165 
-0.28989458 -0.10199391 -0.26521134 
0.33996597 0.15130745 0.058604218 
0.37570554 0.114800096 -0.104922704 
-0.21383777 -0.23146161 -0.19327238 
-0.12905368 -0.15179247 -0.052028265 
0.43530536 0.20624036 0.005526008 
0.093425915 0.20706473 0.07046727 
0.17391135 0.11045006 -0.14650498 
0.112221085 0.12638076 -0.09844173 
-0.011186678 0.080770604 -0.14824387 
-0.19325836 0.030425852 -0.11496885 
-0.06446916 0.026078552 -0.17515598 
0.4412576 0.21527709 0.027037634 
0.46184662 0.21334544 -0.033227682 
-0.06814014 -0.123450756 0.012521191 
0.21967492 0.13995424 0.11708461 
0.20757173 0.12747578 0.11191617 
0.33580014 0.1659776 0.02042241 
-0.48915103 -0.03168616 -0.1620927 
-0.3243307 -0.32552946 -0.07247235 
-0.36403993 -0.12955625 -0.2953988 
0.3488342 0.1765853 0.04097294 
-0.06771933 -0.077576056 -0.17806263 
-0.39035034 0.01651952 -0.101975545 
-0.16045439 -0.048049822 0.061376072 
-0.03093808 -0.07655678 -0.13403174 
-0.3109727 -0.016504778 -0.15392011 
-0.33898094 -0.21441974 -0.28746772 
0.033934973 -0.09679663 -0.12806958 
0.14013755 -0.040814795 -0.13751204 
0.11862903 0.123523064 -0.108192645 
-0.3176333 -0.3557195 -0.13066474 
-0.37196562 -0.3088463 0.047808137 
0.027079547 -0.09073246 -0.13223003 
0.14710262 0.23150234 0.12437027 
0.23464344 0.2077932 0.16389842 
0.21707503 0.24400008 0.15097508 
-0.09162351 -0.023550525 0.11285173 
-0.37917346 -0.11778103 0.07461533 
-0.36434522 -0.03786871 -0.2373893 
0.31262437 0.05225386 0.006502418 
-0.42588878 -0.058429584 0.02607783 
-0.1819683 -0.09368089 -0.24278244 
0.44724151 0.21538986 -0.05641115 
0.07703182 0.08611605 0.08624561 
0.063735515 -0.095926344 -0.103485025 
-0.079154976 0.1291928 -0.0025655106 
0.089402616 0.042187877 -0.15444952 
-0.20851728 -0.29168186 -0.17281766 
-0.19886245 0.047999207 0.065657824 
-0.14374062 -0.1517787 -0.11232334 
-0.24000694 -0.32923195 -0.14154884 
0.26791716 0.0702527 -0.05756285 
-0.27224892 -0.14513911 -0.2547582 
-0.45506752 -0.005802398 -0.059224237 
-0.118213005 0.00842665 0.076090485 
0.081578314 -0.121302575 -0.026195928 
-0.423828 -0.19801478 0.027372299 
0.23609711 0.0033928086 0.060292184 
-0.36165264 -0.3357965 -0.020209916 
-0.5077317 -0.043238685 -0.15351263 
0.39475715 0.20986634 -0.070274286 
-0.061997466 0.028473139 0.08788146 
0.059903566 -0.054015458 -0.1722844 
0.05299401 -0.13469522 -0.0030892938 
0.082503535 0.09826777 0.07488399 
0.07923446 -0.079697564 -0.14058961 
0.27007803 0.18694672 0.05741724 
-0.27773157 0.029941864 0.018885033 
0.22280724 0.02334092 -0.116876036 
-0.024006758 -0.09733678 0.062327977 
-0.45358738 -0.17305759 0.06656985 
0.37466034 0.21246633 0.07106383 
0.0134134665 -0.113138415 0.030920316 
-0.12946928 0.06102385 0.025759859 
-0.0065029617 -0.08411318 -0.17205994 
0.42679134 0.23974185 -0.027886527 
-0.17831045 -0.08426134 0.05836666 
-0.4792561 -0.08589867 0.011239802 
0.1074097 -0.018755572 -0.16820835 
-0.17220266 0.0015912022 0.054582864 
-0.44831583 -0.08561609 -0.114085026 
0.0027701873 -0.0668034 -0.18832983 
0.38202056 0.27842125 0.09913392 
0.35219347 0.19641913 -0.057048928 
0.21200152 -0.0005208247 -0.10846711 
-0.21885139 -0.26136878 -0.22492383 
0.34084433 0.15761821 -0.056221887 
-0.3548646 -0.23923153 -0.25744805 
0.32087803 0.2548801 0.15701136 
-0.044392336 0.1260403 0.06430499 
-0.14546841 -0.05247633 0.07425343 
0.13519317 -0.017417626 0.07844347 
-0.38611606 -0.01024989 -0.16866039 
-0.33610794 -0.1933708 -0.29430115 
0.07786512 0.16057421 0.10614502 
0.09503587 0.15470035 0.06426419 
-0.14785346 -0.124161005 -0.13474114 
0.36361423 0.27944663 0.178061 
0.35922244 0.07793805 -0.0848092 
0.07446277 -0.13670015 0.00925602 
-0.46298695 -0.1442465 0.07009559 
-0.33603638 -0.25433227 0.082272835 
0.1916297 0.1464492 -0.10169656 
0.0027659629 0.09754659 -0.12723812 
-0.19010973 0.023546837 -0.12540507 
-0.43833265 0.0023923975 -0.09588906 
0.0263027 -0.07056513 -0.1663539 
-0.06071078 0.06573546 0.10108367 
-0.14419134 -0.07084973 0.0686485 
0.14203037 0.058193043 -0.15578519 
0.3270246 0.089167364 0.10961847 
0.16196439 0.25351974 0.10378809 
-0.40029496 -0.31480116 0.0363778 
0.34641087 0.14967865 0.003302962 
0.12982446 0.0972876 -0.11711403 
-0.33375835 -0.36047706 -0.22155389 
0.30741084 0.069940366 0.08234296 
0.07315744 0.14445914 0.081547454 
-0.09536557 -0.0127587095 0.08680822 
-0.14450328 -0.12960717 0.013249488 
0.059946492 0.10350544 0.058063827 
0.3355552 0.15466326 -0.037771855 
-0.0068640285 0.082761794 0.08120727 
-0.31283742 -0.07425747 -0.253266 
0.18054578 0.17001568 -0.096774645 
0.4088223 0.17345892 -0.05620729 
-0.22434002 -0.29995862 -0.16554224 
0.29922166 0.07385344 -0.09219159 
0.35094434 0.062411048 0.024593184 
-0.19138052 0.04058755 0.05471898 
-0.29810336 -0.33742163 0.010850803 
-0.29124686 0.0006841987 -0.16089611 
-0.44736302 -0.17818305 0.064821124 
0.29174456 0.18827921 -0.006056153 
0.03989032 0.13891971 0.0018551708 
-0.16354384 -0.07291791 0.024995606 
0.060786273 0.057412602 0.0873988 
0.03613058 -0.00095634256 0.10255793 
0.16801009 0.24694097 0.10059063 
0.08518743 0.024942465 0.09814748 
0.040121675 0.17014812 0.08691896 
-0.25997564 -0.095695764 0.051838934 
0.3011965 0.06727754 -0.109433055 
-0.4154946 -0.23180994 -0.013083078 
-0.2864328 -0.013803943 0.01668672 
-0.045937322 0.08491434 0.10704061 
0.00536074 0.056629073 0.087293476 
0.19817053 0.21812809 -0.0016692863 
-0.16544089 0.052093953 -0.019711172 
-0.050186638 -0.0953342 -0.16736963 
0.013612294 -0.011794439 0.10587201 
0.29324067 0.18658948 -0.03360491 
0.2642649 0.23253848 0.15875797 
-0.17798445 0.040553477 0.010370398 
0.11034324 0.042549245 0.1057019 
-0.12638085 -0.1259524 -0.13784806 
-0.18076855 -0.0047379043 0.04642195 
0.28522372 0.050020367 -0.093983285 
-0.28243467 -0.16466996 -0.28541058 
-0.45844376 -0.2580686 0.02432565 
-0.12532751 -0.14011432 -0.08810239 
-0.3310502 -0.17064585 0.07932459 
-0.065325744 0.032107215 0.08344453 
0.14150946 0.14488773 0.11978198 
0.2553862 0.15378897 -0.14149787 
0.07283278 0.13686366 -0.06832359 
-0.25933063 -0.18369053 -0.2730602 
-0.22630854 -0.32661504 -0.0664684 
-0.012593082 -0.11478044 -0.12888017 
-0.14430888 -0.09931795 0.024330301 
0.14931886 0.046334583 -0.11449225 
