-0.030707069 0.2619429 0.0028814103 
0.0367008 -0.2469659 0.1958436 
-0.014211369 -0.31667218 -0.079410866 
0.066681705 0.28630385 -0.0612 
-0.10286042 0.121294454 0.12164312 
0.15312058 -0.23291373 -0.055405397 
-0.02005019 0.27595687 0.09772051 
0.2923722 0.08048628 -0.09617112 
0.040573314 -0.22788155 0.21824963 
-0.018643316 0.2773485 -0.07322032 
0.1290915 0.19304702 -0.22309062 
0.23001611 -0.0993739 0.12987211 
-0.09375145 0.1336551 0.1481707 
0.21686795 -0.12099486 0.07144056 
0.19350004 -0.16145384 -0.004262474 
0.2825955 0.07450699 -0.15368083 
-0.043171618 -0.014416812 -0.26596618 
0.1750559 -0.20859715 0.09188623 
-0.0364892 -0.24688873 0.14656381 
-0.093566194 -0.2550005 -0.15690662 
0.21561155 0.22878312 0.1709559 
-0.13740864 -0.006419452 -0.2051771 
-0.11186343 -0.2267379 0.037557464 
0.2296581 -0.08990679 0.0100400895 
0.22369508 0.024697592 0.26592764 
-0.02659765 -0.08186794 0.2738328 
-0.11458347 0.1355632 -0.08997292 
0.07248812 0.33167356 0.15128158 
-0.023866652 0.20383993 -0.18896353 
0.25902122 0.012985978 -0.13503319 
0.17801298 0.4055478 0.1893615 
-0.060791407 -0.19408356 -0.18245241 
0.09292754 -0.08669991 0.3074539 
-0.02064089 0.27801588 -0.01775535 
-0.29885948 -0.3271696 -0.13045835 
0.006558126 -0.18524083 -0.2415295 
-0.15276858 0.04935832 -0.06578273 
0.13633552 0.14658394 -0.25741786 
-0.015183141 -0.24161689 -0.16893458 
0.31257686 0.14775555 0.042819113 
-0.07386949 0.001489746 0.26533088 
0.24322209 0.12376435 -0.20481911 
0.0064419685 -0.03329061 0.29380393 
-0.3028743 -0.33789277 -0.14209549 
-0.15940848 -0.27609304 -0.15818764 
0.14330721 0.0024741567 0.31449044 
-0.025495315 0.0424598 0.2793223 
-0.1544391 -0.114139095 -0.14008072 
0.08679898 0.3426132 0.12990825 
0.06680394 0.15837866 0.25110283 
0.17034662 0.39274204 0.18557216 
0.15333705 -0.17043751 -0.20702034 
-0.15766495 -0.028991697 0.15337093 
0.18225364 -0.15141502 0.21426849 
0.22735426 -0.09877381 0.06383261 
0.29477412 0.16051851 0.11738212 
0.105640195 0.07997927 0.29875693 
-0.17380533 -0.052976016 0.07175787 
0.16040383 -0.23183289 0.085592754 
-0.10524645 0.026849383 0.24082857 
0.28489023 0.18655671 -0.069372155 
-0.05565447 0.09109602 0.26224935 
0.22967547 0.04600936 -0.2259235 
0.015223686 -0.17051755 0.25295356 
0.3134127 0.12635903 0.04087297 
0.06443811 -0.21886441 0.22967625 
-0.06437501 -0.023104345 0.2634051 
0.26670834 0.043552168 -0.1723079 
0.045698382 -0.30025697 -0.018980578 
0.14529848 0.2089003 -0.208076 
-0.042475034 0.1873949 0.21980843 
0.02534305 -0.1945333 0.2406434 
0.15823717 -0.2331563 0.021788906 
0.14492053 -0.08402997 0.29860505 
0.15966488 0.07783087 -0.2842216 
-0.07325772 0.1877877 -0.14406322 
0.029713076 0.26139078 0.14617267 
0.26675949 -0.018714845 0.1884821 
0.059993096 0.32671067 0.07941293 
0.04889658 -0.25600713 -0.15816791 
-0.07670402 0.0013870291 -0.24625161 
0.23190081 0.2141922 0.17748947 
0.20576376 -0.09891198 -0.1768948 
-0.011169111 -0.31610355 -0.088916704 
0.03456754 0.29320702 0.019973058 
-0.19136454 0.14385237 0.07332364 
-0.12444206 -0.21649884 -0.010159853 
0.07856538 0.20231833 0.22524984 
0.24110225 0.29887393 0.08917993 
0.21026097 -0.10936951 -0.09768619 
-0.14294763 0.06205632 -0.13796145 
0.11532111 -0.16497228 0.26218408 
0.28108627 0.018773496 0.12536211 
-0.13243237 -0.07407936 -0.18978164 
0.074618645 -0.08689369 0.30379656 
0.28133827 0.027841495 0.065350644 
-0.18696037 -0.09517163 -0.11358273 
-0.20504296 -0.1045498 -0.06301946 
0.1862122 0.28538024 -0.019503033 
-0.101662904 -0.13174507 -0.19334431 
0.21237725 -0.10034816 -0.08518894 
0.29140902 0.19349808 -0.060514055 
0.20786594 0.3544804 0.14030546 
-0.08558861 -0.14899465 0.20443672 
-0.23632981 -0.27989027 -0.14855652 
0.104201436 0.19290335 0.227633 
0.08424805 -0.25601265 -0.13555856 
0.02269894 -0.18241495 0.25704637 
0.21622 -0.12814263 0.12114621 
-0.053437043 -0.2710688 -0.17213675 
0.1250337 0.19082074 -0.22810444 
0.23958732 -0.037437856 -0.13394542 
0.15618655 -0.22077964 -0.07703087 
0.09008198 0.339817 0.14113356 
-0.13775769 0.0023359351 0.1862271 
0.11550139 0.29190513 0.028831342 
0.12782091 0.12991457 0.27758995 
0.18376124 -0.14734273 -0.16493103 
0.20017506 -0.11350602 -0.1611338 
-0.12713668 -0.34057727 -0.085616514 
0.072164565 0.33120096 0.08961833 
0.09580673 -0.15303423 -0.2569165 
0.11921118 -0.22298902 0.19644268 
0.19061032 0.039427213 -0.2678312 
0.1530718 0.28785118 -0.026996132 
-0.013693411 0.2873242 0.061877225 
0.08478685 0.19764963 0.22744073 
0.27097425 0.03309154 -0.05693419 
0.16787812 -0.20882761 0.044666857 
0.1475417 0.28861699 -0.041852612 
0.09045436 0.41081706 0.16428253 
0.068413645 -0.0051116194 0.30863827 
-0.16389367 -0.27079508 -0.11264574 
0.15102577 0.15161082 -0.2540575 
-0.098584406 0.09954894 -0.21893658 
-0.029799208 0.26163772 -0.082979895 
-0.069521606 -0.2526004 -0.16326775 
-0.32203385 -0.36137685 -0.12806968 
0.065315 -0.08043888 -0.30157092 
-0.14877997 0.048871003 -0.19815253 
0.27233925 -0.0018852539 0.14988387 
0.12037587 0.439378 0.16693397 
-0.18879513 -0.06308962 -0.03268189 
-0.08427721 0.0031682807 0.25720662 
-0.11609729 0.11645888 -0.14492685 
-0.16701183 -0.011418819 0.06766092 
0.2317377 0.079733275 -0.2251554 
-0.011647809 -0.29760292 0.0457437 
-0.1245359 -0.05968026 0.2212685 
-0.06249071 -0.030568436 0.27102306 
0.24322459 -0.0687744 0.10376631 
-0.098481774 0.16010325 -0.069803804 
0.16467018 -0.21760122 -0.02093347 
-0.30935922 -0.3319565 -0.16822477 
-0.048982456 -0.16013382 0.22742884 
0.09039672 0.29161274 -0.04535357 
-0.0790713 -0.15162697 0.20697728 
0.23884444 0.28362605 0.08890911 
0.22035603 0.22707047 0.16747615 
-0.13186687 -0.21088125 0.031206587 
0.1728572 0.2178418 0.19672821 
0.1949922 -0.055953965 0.27463463 
-0.22922203 -0.29423437 -0.08460767 
-0.25629205 -0.2726553 -0.11104623 
-0.172299 -0.013764342 -0.09444844 
-0.051831957 0.25640434 -0.10513896 
-0.033646964 0.16888072 -0.21631604 
-0.09238793 0.16835567 0.05483906 
-0.177728 -0.09839887 0.08574645 
-0.037514072 -0.2639964 0.10855619 
0.27725494 0.2310004 -0.0108598955 
0.19821063 -0.09880887 -0.21162327 
0.15089817 0.45108914 0.14281285 
0.0062848115 -0.3038932 0.045059644 
0.26934427 0.2658405 0.11206247 
0.2268524 0.003656511 -0.22724988 
0.28739244 0.1968864 0.09560006 
0.0059327884 0.13193661 -0.24981259 
0.23640244 0.27557638 0.14085884 
-0.16037284 0.15712243 0.023025092 
0.009107256 0.29024014 0.047399726 
-0.07416307 -0.33527923 -0.12802945 
-0.12322301 -0.20028426 0.09462068 
0.059905697 0.29461658 -0.01478512 
-0.24975267 -0.2686202 -0.09853363 
0.17488673 -0.13061373 0.23805521 
-0.1247495 0.113523684 -0.07514638 
0.22848465 0.23673221 -0.13404928 
0.30975816 0.11500911 0.10903493 
0.2110337 0.27164668 0.064821444 
-0.023845896 0.21755642 -0.17494403 
0.23212259 0.2688936 -0.0369988 
0.0715534 -0.23072909 0.21340904 
0.09211731 -0.0844191 0.30478063 
0.003329344 -0.30211684 -0.025067667 
0.28103256 0.019414214 0.0681238 
0.12195525 0.3941287 0.16702087 
0.2689395 -0.0037068448 0.037171774 
0.26953852 -0.006225714 0.0820143 
-0.16591108 0.00787593 0.039296295 
0.100226484 -0.021062225 -0.3057052 
-0.00039353553 0.13413864 0.26201603 
0.028867763 -0.02360395 0.29691428 
0.28499612 0.18700953 -0.082420535 
0.1936616 -0.17673513 0.10258758 
-0.07882601 -0.25543115 0.041307915 
0.145095 0.26098981 0.1302745 
0.14528564 -0.0062318584 -0.2941599 
0.090887666 0.22548409 0.20014188 
0.17628211 0.28259033 0.042403676 
0.094046764 -0.19352123 0.24325453 
0.008230243 -0.13073392 -0.26692295 
-0.016259963 0.2763864 -0.001372878 
0.072802015 0.25351408 -0.14216585 
0.17541975 -0.06449941 0.28440833 
0.19246228 -0.13999741 -0.11708227 
0.29337987 0.050697207 0.13452333 
0.15625906 0.26294273 0.121602096 
-0.14633065 -0.19094718 -0.012220502 
0.07486563 0.19330564 -0.22122031 
-0.12887968 -0.34462672 -0.11064455 
-0.06391807 0.18477811 0.14987071 
0.061350316 0.12393589 0.2762851 
0.13889155 -0.066241756 -0.28331965 
-0.037700985 0.22780173 0.1657132 
0.057545494 0.1976234 0.22535254 
0.2247886 0.095519826 -0.23670769 
-0.116658695 0.097759835 -0.17424981 
0.20116474 -0.10180744 0.23421279 
0.16902259 0.003855216 -0.28087932 
0.114462405 0.16204719 -0.25193846 
0.14701155 -0.03411231 0.3103528 
0.17799877 0.025824301 0.30192557 
0.27557492 0.018235598 -0.07908908 
0.22461101 0.3211366 0.15563662 
0.08851844 -0.13765134 -0.26304787 
-0.089711204 0.15040362 0.12489193 
0.28139684 0.019873852 0.13569945 
0.29334518 0.12771042 -0.12186415 
0.1970477 -0.15554379 -0.019673735 
0.15687673 -0.060812302 -0.27435806 
-0.109592035 0.042504743 0.24437189 
0.10985177 -0.17499809 -0.22489673 
0.1698926 -0.15055792 -0.2013656 
0.08833196 -0.2788291 -0.04794007 
-0.14753093 0.04067762 -0.14970922 
-0.08068582 0.1849503 -0.16636495 
-0.12289326 -0.080512226 -0.19684349 
-0.18211357 -0.07508776 0.0818461 
-0.16202568 0.120388344 0.057137705 
0.05797647 -0.11788726 -0.2884258 
-0.193123 -0.13670503 0.041252874 
-0.03336795 0.2593785 0.034451906 
0.19958709 0.07434273 0.2891377 
-0.09803816 -0.26270115 -0.062294543 
-0.13123035 0.049473427 -0.21358338 
0.1617424 -0.19931318 -0.12602769 
-0.22462474 0.09659853 -0.012897294 
0.04997438 0.2949981 0.02114224 
-0.06127157 0.16917022 -0.20216636 
-0.074518785 -0.3382122 -0.122064784 
0.025266722 0.21243338 0.20852134 
0.1457713 -0.09298912 0.29016066 
0.037622996 -0.2580082 -0.15891431 
0.18083176 -0.091459714 -0.23460071 
0.12702018 0.20876685 -0.20468304 
-0.03384828 -0.28034475 -0.16502821 
-0.16573656 -0.015607511 -0.13996333 
0.096224144 0.4126219 0.17132585 
-0.10304502 0.13533774 0.09961255 
0.15342903 0.44680884 0.13412046 
-0.2863708 -0.3351968 -0.11844047 
-0.13001817 -0.14305909 0.16415292 
-0.20420389 -0.10845309 0.053320047 
0.26691753 0.055252638 -0.17971073 
-0.03980734 0.22710203 0.121315904 
0.30403048 0.09563013 -0.023682557 
0.308393 0.09870589 0.09134937 
0.12808202 -0.2598404 -0.079555705 
0.23341268 -0.043869443 -0.15697396 
-0.032753136 -0.26287085 -0.16479927 
0.17212865 -0.1918515 -0.08176503 
0.27070218 -0.0043096235 0.07764991 
-0.13007689 0.123588935 -0.008122082 
0.0032132766 -0.20074436 -0.21854468 
-0.19063206 -0.102494605 0.088521846 
0.2538876 0.28599074 0.14963657 
-0.27940425 -0.27815485 -0.12345422 
0.12660784 0.11233671 0.28221768 
0.1658425 -0.20974453 -0.05372177 
-0.013212437 -0.31327358 -0.06179135 
-0.11030589 -0.21308503 0.1057089 
0.044621523 -0.1801831 0.26004148 
0.23922707 -0.07581732 0.19755462 
-0.16899392 -0.16607094 0.021304656 
-0.03149197 -0.25243786 0.147955 
-0.1304839 0.090705074 0.07552986 
0.067788444 0.38105407 0.12708823 
0.25871632 -0.03319314 0.12587354 
0.22499625 -0.088740245 -0.039471123 
-0.10448777 0.1547815 -0.06525137 
0.04483473 0.22856334 -0.17641869 
0.12247411 0.2897388 0.053085368 
0.26243278 0.24345595 0.06870743 
0.09737665 0.29007545 -0.04679424 
-0.16134824 -0.3138852 -0.15884179 
0.13853534 -0.24667731 -0.08554011 
-0.17045654 -0.13150549 0.108663894 
0.076602384 0.26992464 -0.11386354 
0.26844916 0.23502244 -0.048561372 
0.3042607 0.08191014 0.088290766 
-0.18635453 -0.14529166 0.046812832 
0.024828115 0.26089785 0.14327976 
0.25557247 0.2781458 0.076565064 
0.3194816 0.15030776 0.028685544 
-0.012634703 0.19723777 0.21218497 
-0.054099698 -0.21360093 -0.16439548 
0.19619939 0.21812616 -0.18361232 
0.24482132 0.0063101714 -0.21298054 
0.070279375 -0.247864 0.19051014 
-0.23739707 -0.27960855 -0.14875665 
-0.27010286 -0.27703583 -0.10999485 
0.21777314 -0.006012253 -0.23286581 
-0.098204024 -0.26200476 -0.05013352 
-0.008522797 0.030809605 0.28519216 
0.16991231 -0.21749881 0.098843835 
0.18845221 0.23340228 -0.170465 
0.18126465 0.28277057 0.03595505 
0.15798655 0.284868 -0.059799284 
0.2585476 -0.027858162 0.019254424 
0.27921155 0.018025752 0.08002979 
0.13481666 -0.18153578 -0.20058441 
-0.14795995 0.02803688 0.10655004 
-0.071699575 0.028336447 -0.2468484 
-0.09710028 0.16729979 0.035091 
0.26410684 0.3002566 0.12792042 
-0.0069769896 -0.29988608 0.0011735074 
-0.057843905 -0.124383055 -0.23202285 
0.20001571 -0.026529167 0.27355683 
-0.1495269 0.04443295 -0.12160145 
0.2628013 0.15091889 0.18810396 
0.07570493 -0.26796398 0.14984086 
0.18521526 0.2269829 -0.18003549 
-0.10115113 -0.25724912 -0.06217736 
0.053240165 -0.2763247 -0.10707578 
0.0002521966 -0.17514099 -0.23876049 
0.034250226 0.28523967 0.13324428 
-0.20228657 -0.107791215 0.053596504 
0.094285816 -0.28404757 0.0009399926 
-0.09329214 0.11040813 0.23062468 
0.14532727 0.2859716 -0.04228349 
0.14509183 0.2248709 -0.18984768 
-0.20271033 -0.2932296 -0.15679686 
0.20919353 -0.05786933 -0.23009323 
-0.13309877 -0.2101901 0.015552115 
-0.15690988 -0.33528647 -0.11925837 
0.22534353 -0.10506415 0.035093468 
0.022406098 0.29273564 0.044164784 
-0.026227534 0.08976674 -0.2556551 
-0.17653632 -0.09964971 0.08206884 
0.1256777 0.09318446 0.29118565 
0.12986413 0.27403298 -0.10815937 
-0.13410166 0.013268904 -0.20961031 
-0.15589936 -0.18300739 -0.0020260175 
-0.1469583 0.08545694 -0.020869946 
0.14182952 -0.060866836 -0.2798784 
0.14178953 0.4429549 0.17397153 
-0.080485635 -0.1321667 0.21500768 
0.10585519 -0.20595017 -0.19148684 
0.26283312 0.022398261 -0.13155688 
-0.03449196 -0.17572343 -0.21811199 
-0.16943917 -0.1272136 0.12660022 
0.18226172 0.43088925 0.1282355 
-0.112857476 -0.09710124 -0.19327 
0.18483528 0.20690942 -0.20785137 
0.2991968 0.0748682 0.15026583 
-0.09657369 -0.19863102 -0.13640982 
-0.10009344 0.076238945 0.24677251 
-0.14903943 -0.2700321 -0.14820592 
0.24805155 -0.060559824 0.08213025 
0.11323197 0.2968288 0.03245011 
0.1550947 0.2892457 -0.024931462 
0.11769502 0.25491402 -0.14974608 
0.17408638 0.18720728 -0.22755486 
0.17814066 -0.18466644 -0.06406071 
-0.021459777 0.28916734 0.045536425 
-0.045784008 0.09894192 0.26042688 
0.087868825 0.41192713 0.12522098 
0.28225657 0.21857332 -0.03320479 
0.05304457 0.12986222 0.27137882 
0.19194445 -0.0027241765 -0.2655946 
-0.06346897 -0.26625043 0.05184735 
-0.022219246 0.27400938 -0.05035899 
0.24163833 0.24841027 -0.09351734 
0.18789735 -0.16613978 -0.031474113 
0.09874721 -0.27008057 -0.06788415 
0.1723065 0.019839775 -0.2808704 
-0.022399409 0.22552349 -0.17722918 
0.20848568 -0.09537444 -0.1807204 
-0.11156756 -0.22276507 0.056139637 
0.0023245742 -0.07524876 -0.2814173 
-0.17238984 -0.27669755 -0.15510839 
-0.067487836 -0.22708836 -0.15090331 
-0.09111286 0.024126818 0.2534589 
0.19939868 -0.14937222 -0.006126694 
0.23874514 -0.060232077 -0.023284938 
0.121487826 -0.12718743 -0.25586954 
0.27641723 0.21547769 0.08988137 
0.22556128 -0.10534856 0.06151107 
0.29097116 0.21126255 0.024090255 
-0.013667284 -0.2882601 0.086486295 
0.2366463 0.17842112 0.21044473 
0.13338964 0.43702486 0.12019985 
0.16096865 0.28189653 0.07628294 
-0.047981855 0.24221201 -0.015074128 
-0.03736853 -0.3047414 -0.0341021 
0.022894148 0.2721719 0.12432101 
-0.16609322 -0.16879106 0.036971517 
-0.09468889 0.11581957 -0.2155643 
0.057758156 0.27733624 0.10922443 
-0.16182297 -0.14380859 -0.09584037 
0.08575073 -0.23244236 0.20884636 
0.099613555 0.20018312 -0.21401745 
0.15435997 0.21797478 0.20266655 
0.17763308 0.26585296 -0.11455539 
0.23651299 0.22789948 0.14858486 
0.050569084 0.20206308 -0.2078655 
0.030332685 0.29926553 0.07504718 
-0.25084287 -0.26901263 -0.12152401 
0.110313244 -0.13291161 0.28505698 
0.13196239 -0.08294219 -0.2741686 
-0.113226295 -0.3428105 -0.06975605 
-0.10358816 -0.20560811 -0.11996782 
-0.21020566 -0.32601443 -0.09662137 
0.16244222 -0.047378562 -0.271624 
0.2994043 0.0869507 0.15097529 
0.14758432 -0.22930048 0.14427254 
-0.12691414 -0.0983374 -0.19289845 
-0.08690951 -0.24572736 -0.14650217 
0.21344233 -0.025596946 -0.23401937 
0.045490015 0.098536566 0.28425136 
-0.2613287 -0.27079833 -0.116561696 
0.23240267 0.3463475 0.10620002 
-0.045198396 0.18125519 -0.19971432 
0.26643196 0.17753446 -0.13101193 
0.28385133 0.19923373 0.10548175 
-0.0682045 -0.21406011 0.16296971 
0.05458755 -0.21793507 0.23249823 
-0.13033749 0.09503154 -0.100596584 
0.24921915 0.007214274 -0.18829092 
0.29729426 0.11747508 0.12419979 
-0.121471174 0.0047476036 0.2418043 
-0.033423685 -0.13842314 0.24755292 
0.104896605 -0.20179333 0.23376276 
0.20603204 -0.029362287 -0.23645097 
-0.18582062 -0.08599764 0.033366688 
0.24620104 -0.010788654 0.22862074 
0.12239189 -0.27106896 0.04666263 
0.2865608 0.08094549 0.17179213 
0.18698183 -0.1777133 -0.04226258 
-0.08719538 -0.34193397 -0.102837965 
0.22096972 -0.11730391 0.10592678 
-0.036071338 -0.2872659 0.022802187 
-0.15584412 0.017213158 -0.14737657 
0.10554355 -0.22616538 -0.16925538 
-0.053087294 -0.058437668 -0.256233 
0.27103895 0.02522789 -0.0555936 
0.23998997 0.08477883 -0.2159103 
-0.15635686 0.024299763 0.06810472 
0.27056184 0.1488653 0.18161689 
-0.07765981 0.18371937 0.08442666 
-0.17895374 -0.032851905 -0.019627096 
0.0781325 0.39123034 0.14515099 
-0.081578836 -0.329172 -0.046874598 
-0.07785497 0.19233082 -0.18294951 
0.24541068 -0.055287287 -0.0390335 
0.2036271 -0.11740864 -0.1291078 
-0.21753335 0.097920604 -0.010637328 
0.16314924 0.38953307 0.16045135 
0.23144637 0.3886049 0.13894045 
0.19093889 0.16114253 -0.23652954 
0.16679396 -0.107825644 0.2686963 
-0.117029876 0.020200431 0.21506338 
0.29795122 0.15894434 -0.041722097 
-0.14169174 -0.041998487 0.214147 
-0.011797616 -0.2974069 0.058044683 
-0.20095 0.13386038 0.060791902 
0.026878318 -0.21422316 -0.21625452 
-0.01004007 0.27084914 -0.097878225 
0.31461743 0.10193176 0.039690625 
0.16484712 0.4018494 0.18461657 
-0.30130243 -0.30753702 -0.14627221 
0.24061336 -0.03433568 -0.122963086 
0.24621719 0.25979325 0.053000614 
0.21126372 0.38956517 0.1736736 
-0.036316 -0.1340389 -0.24643084 
0.06156747 -0.1528783 0.2775072 
-0.022278516 -0.32496774 -0.0887932 
-0.13556963 -0.3402904 -0.11131194 
0.21226656 -0.122260824 -0.0055591874 
-0.053069357 -0.2707325 0.06898969 
-0.16049707 0.02266725 -0.12230996 
-0.22811976 -0.32706195 -0.10536657 
-0.04985754 0.015413058 0.27204278 
0.104905866 -0.1565759 -0.24809924 
0.07106009 -0.16921817 0.26998332 
0.24374494 -0.056878332 0.20137857 
0.11495781 -0.056419086 -0.29514593 
-0.11366771 -0.114745855 0.20140755 
-0.18931317 -0.065992996 -0.034015212 
0.17830057 0.23795217 0.16934118 
-0.14201882 0.0658517 0.08099901 
0.17184147 -0.008400168 0.30475414 
0.09615821 -0.26263365 0.13355824 
0.13215399 -0.25308478 -0.08466536 
0.2332206 -0.08175862 0.061174482 
0.31138232 0.09718916 0.09275827 
0.12686828 0.39987934 0.1783062 
-0.14294744 -0.33692575 -0.076903425 
0.26397657 -0.016502304 -0.015131688 
0.12330024 0.26088864 -0.13548163 
-0.025737938 -0.2923435 -0.013436273 
-0.19834453 -0.3001844 -0.15895915 
-0.035753522 -0.30283785 -0.1531068 
-0.1086998 -0.23000126 0.03150499 
0.17468794 -0.1776302 -0.1366403 
-0.074422576 0.17884059 -0.19160512 
0.18049447 -0.19550304 0.15302475 
-0.13148648 -0.16130982 -0.124212004 
0.08705063 0.2568053 -0.14269319 
0.16612639 -0.011329416 -0.27973607 
0.19451198 0.27398068 -0.0714624 
-0.052330844 -0.27068248 0.05858664 
0.13875037 0.22130784 0.20112036 
-0.17786108 -0.04400673 0.054293282 
0.18092702 -0.19252615 0.036449764 
0.2934536 0.10980716 0.14917263 
0.09622688 0.36230382 0.1439089 
-0.04729968 -0.03530921 -0.26136196 
0.17564867 0.1592379 -0.24650899 
-0.07951383 0.16016626 0.1432271 
0.16981305 0.22358863 -0.18214098 
0.23602608 -0.06626813 0.22228825 
0.1535817 0.0058068815 -0.29048747 
-0.3229038 -0.35707012 -0.15894248 
0.042553175 0.28906175 -0.043901045 
0.10951288 0.07529571 0.29752603 
0.09426554 -0.26589304 -0.08801592 
0.11740283 -0.13828023 0.28267178 
-0.07046174 -0.02689856 -0.24738607 
-0.20609446 -0.09336036 -0.06775516 
-0.16379423 0.0046916218 0.011259007 
0.27699903 0.08068182 -0.16567777 
0.27573422 0.0094767 0.18691655 
0.2762 0.018939678 0.19556895 
0.042153865 0.28039998 -0.08592036 
0.1653578 0.2668972 -0.11326088 
0.28170443 0.21287529 0.0731304 
0.21008697 0.18572466 -0.20813087 
0.21125343 -0.12730484 0.014721047 
0.16371411 0.29288772 -0.021283494 
0.29188994 0.04478593 0.07435499 
0.22519046 0.030029146 0.2705902 
0.22825341 -0.06537179 -0.13342643 
0.12800115 0.4001735 0.14451642 
0.015761066 0.022563573 -0.2900296 
-0.16544372 -0.29897603 -0.1617681 
0.13447984 -0.12373192 -0.24868849 
0.29596052 0.06006573 0.059952736 
0.0030606762 -0.2855333 0.11206587 
-0.24491824 -0.32021555 -0.14627531 
-0.16720009 -0.079990104 0.1549876 
0.20038146 -0.07068692 0.25813285 
0.021292677 0.24736887 0.16758855 
-0.017771808 -0.20162852 0.21300985 
0.062258903 -0.28073564 -0.0902195 
-0.05883132 -0.11042159 0.24693303 
0.23026045 -0.091801375 0.15594976 
-0.31583896 -0.34784633 -0.12742712 
-0.11551767 -0.063775875 -0.21333146 
-0.1669306 -0.3350561 -0.11195907 
-0.03762281 -0.23271832 -0.16468568 
-0.09411177 0.16107574 -0.14184183 
0.14190224 -0.2617772 0.040676814 
-0.09522213 0.088015184 0.23409519 
0.2442191 -0.038691036 -0.0912202 
0.29553983 0.18294404 0.07672653 
-0.091482714 -0.23456222 -0.10874047 
0.16725872 0.10627743 0.28611144 
0.060573842 -0.27428046 0.14283054 
-0.049041692 -0.18948694 0.20314902 
0.12076739 0.2513593 -0.14929947 
0.08777637 0.26906767 -0.11943666 
0.23628974 -0.029241046 0.23323081 
-0.039655827 0.27315724 -0.06321694 
0.15701695 0.44373345 0.16230178 
-0.15930042 0.008729211 0.08282764 
-0.0932683 -0.09975258 -0.21389757 
-0.16365369 -0.07534633 0.1572603 
0.17041387 0.44421893 0.13800935 
0.17166586 0.20812793 -0.20148268 
-0.012811766 -0.1572117 0.24701865 
0.23013055 0.10986257 0.26223052 
0.22612797 -0.025664732 -0.2259944 
0.024139447 0.2479533 0.15326393 
-0.09513911 0.09952012 0.2432789 
0.19561778 -0.15140238 -0.038464405 
-0.14812154 -0.0916195 -0.16437802 
-0.009178071 -0.27897 0.12288096 
-0.08388045 0.12250106 0.19856429 
0.1950066 -0.11312123 -0.19551893 
0.19213791 0.012579703 0.2938475 
-0.05614726 0.23094042 0.019097187 
-0.015270042 -0.2885717 0.10524342 
-0.023558423 0.26407602 -0.005086964 
0.29347318 0.06284717 0.034508243 
-0.07977477 -0.26246217 -0.039315138 
0.24814156 -0.043588065 0.18452565 
-0.085934944 0.12358712 -0.2162233 
0.071543105 0.38495454 0.12878284 
0.2063324 0.27900198 0.020312767 
0.20597161 -0.14822824 0.1388419 
-0.07920697 0.14384238 0.172748 
-0.0737137 -0.13708621 0.22103472 
0.031520564 -0.30197528 0.058259316 
-0.148766 -0.044356268 0.19086127 
-0.07904281 -0.29682818 -0.1731162 
0.10197167 0.42865154 0.14445661 
0.0038589265 -0.24897 -0.16927175 
-0.14592661 0.016420553 0.13872701 
-0.15681957 0.02497479 -0.12879676 
-0.13403098 0.08001532 0.09231997 
0.09158335 -0.24457452 -0.14788286 
-0.1288851 -0.0051401295 0.21617462 
0.012440119 0.035232708 0.2919282 
0.24823134 -0.04420001 0.0037352429 
0.022479508 0.2817735 -0.071611665 
-0.02019284 -0.11732991 0.2633711 
-0.07111577 0.09701416 0.24950282 
-0.2146473 0.091901705 0.0495121 
0.10960307 0.26155782 0.14946373 
0.10012006 0.22473752 -0.19561645 
0.22080658 0.26936373 -0.0548971 
-0.20559846 0.115536414 -0.02835859 
0.04953898 -0.28597826 -0.08745576 
0.053587273 0.0991577 -0.27346024 
-0.10957328 0.14625123 0.044230588 
0.19011474 0.2715935 0.093117066 
0.21604641 -0.080237485 -0.15315777 
0.13432632 -0.26566654 0.07162459 
0.24455185 0.07688775 -0.20869732 
0.22514836 0.21882896 -0.16160442 
0.0662808 -0.2721694 -0.11155797 
-0.10631008 -0.2490961 -0.11681769 
0.10478695 -0.19973245 0.23297796 
0.18836226 -0.1405025 0.2179548 
-0.19239178 -0.31023732 -0.07891394 
0.17492922 -0.1713257 -0.1254647 
0.077360205 0.27636802 0.10871942 
0.16842072 0.26731855 -0.11025501 
0.24463713 0.26308432 0.08437753 
0.011667027 -0.04359166 0.29368582 
-0.015094964 -0.30435854 -0.039635822 
0.016300432 -0.038618505 0.29366484 
0.100541554 0.2775951 -0.09559296 
0.054591045 -0.12709396 -0.2796712 
0.19109115 -0.1428334 -0.10803324 
0.0034049132 0.28502202 -0.063587174 
-0.17267363 -0.042332657 0.0917544 
0.0789543 -0.1643983 0.27038714 
0.24329992 0.130682 0.23228943 
0.10131858 -0.07470268 -0.29500294 
0.29586545 0.08303724 -0.04809259 
-0.033166688 -0.12550232 0.2531654 
0.07740914 -0.25915 -0.13760148 
0.16777708 -0.20326123 -0.06100017 
0.2937338 0.07619465 -0.03908508 
0.17217334 0.23921865 -0.15832292 
0.0750482 -0.053995743 -0.3024368 
0.09498491 0.18220043 -0.23548959 
-0.13144888 -0.29095557 -0.06891369 
-0.086217135 -0.04508373 0.25013348 
0.27289206 0.23796375 0.035894074 
-0.054996368 -0.14774531 -0.2208045 
0.31598505 0.12410706 0.04584242 
0.21038696 -0.13751133 0.08728647 
0.22061776 0.06111629 -0.24209014 
-0.07968192 0.19584903 -0.07703991 
-0.08072233 -0.23971124 0.075330794 
0.30645487 0.101665825 -0.021454403 
-0.11683902 -0.14403215 0.17744748 
-0.023309495 -0.31363067 -0.09150506 
0.2837804 0.11498432 -0.13980849 
0.04728521 -0.25683385 -0.16180083 
-0.16715442 -0.13008264 0.123077944 
0.21381284 -0.11813139 0.20110655 
-0.12221816 -0.276889 -0.063238755 
-0.0059378822 0.28770486 0.070639335 
-0.03315221 -0.23403585 -0.16371083 
-0.08870745 -0.1773936 0.17270643 
0.2790786 0.06267072 -0.1459745 
-0.10079166 -0.3104233 -0.1651484 
0.22502103 0.395955 0.121056765 
-0.10663919 -0.20997635 -0.10167335 
0.27914587 0.09933974 -0.16475153 
0.095755644 -0.11871436 -0.2798668 
-0.09227137 -0.2377457 0.09455192 
0.28987333 0.17123905 -0.08402186 
-0.13065124 -0.20165196 0.056595318 
0.18076235 0.16290991 0.25079066 
0.00952297 0.25743446 0.14716448 
-0.1655144 0.0017612844 -0.118050545 
0.077509515 -0.2128784 -0.20724097 
-0.12983154 0.019651147 -0.21192187 
0.24057414 0.18488878 -0.1726521 
0.31163368 0.11095462 0.08697944 
-0.002187482 -0.26909015 -0.1512957 
-0.20851114 0.11596955 -0.026785996 
-0.08333742 -0.25600383 -0.0037341744 
-0.07970231 -0.29527304 -0.17170803 
0.013847394 -0.28454682 0.12808615 
0.2488386 -0.011761515 -0.14497319 
-0.1864924 0.078007266 0.031771585 
-0.020864228 -0.18900159 -0.2147766 
0.18680827 -0.12570985 -0.1966803 
0.17086661 0.16842087 -0.24021424 
0.27832112 0.103535876 0.17933556 
0.19116381 -0.04711246 0.2809646 
0.043909248 -0.30046 -0.025188431 
0.12806219 0.28999752 -0.051261924 
-0.17414725 -0.090958156 0.122021705 
0.2393428 -0.08241845 0.14374134 
-0.16329911 -0.06821317 0.1563237 
0.105684906 -0.26396188 0.11397067 
0.18266197 0.28241953 -0.048817616 
-0.09149538 0.13530625 0.15875816 
-0.15967986 -0.17764217 0.021011857 
0.13453205 0.030726131 -0.29390585 
-0.12974 0.018593306 0.22502287 
0.15051293 -0.2478259 0.011042317 
0.15923606 -0.23975457 0.038988464 
-0.22201017 -0.26535654 -0.120456934 
0.21087909 0.3909828 0.17828453 
-0.0012358383 0.29422006 0.022752302 
0.24832895 -0.055691633 0.14222305 
-0.06087777 -0.21135648 -0.16348758 
0.2448787 -0.016359063 -0.15802608 
0.09847375 0.36191016 0.13792498 
0.047128204 0.020278094 0.30855042 
0.0018591003 -0.26642495 0.13916154 
-0.14154768 0.123234905 0.007892903 
-0.16387528 0.016569186 -0.09061197 
0.26626813 -0.011193328 0.20197137 
-0.02595707 0.27643195 -0.042326614 
-0.060333163 -0.15677303 0.22087762 
-0.14647113 0.035546076 -0.16216789 
-0.06457209 -0.26404297 0.059974022 
0.28043047 0.20315038 -0.07845595 
-0.005295111 0.06467888 0.28157607 
-0.18696268 -0.27773365 -0.15526715 
-0.11799516 0.14107145 0.02124174 
-0.0027518147 0.21603936 -0.17687406 
0.22895081 0.3912588 0.14593013 
0.26428548 0.16796279 -0.15185939 
-0.10035273 0.09841245 0.18823613 
0.03581674 -0.27531853 0.14576627 
0.2960771 0.110870585 -0.12392579 
0.2361534 -0.05378972 -0.086198725 
0.29123873 0.13265793 -0.1048212 
0.09246831 -0.006973713 0.31046486 
0.14132725 -0.11103962 -0.2507486 
-0.16845907 -0.33389214 -0.09485599 
0.15228118 -0.17488052 -0.19782749 
-0.11336518 -0.1845774 -0.12530266 
0.23701908 0.2660972 0.025960922 
0.1378168 0.09931366 0.2929156 
-0.09995904 -0.31150523 -0.16320534 
0.19916673 -0.16289221 0.13206325 
-0.09411849 -0.095537096 0.23317644 
0.115050584 -0.00031227025 0.31895408 
0.23436435 -0.08693669 0.16047369 
-0.032921936 0.17989062 0.22313465 
0.24852996 0.08650163 -0.20139335 
0.117938794 0.28578097 -0.07886241 
-0.11007041 -0.19020791 0.14263126 
0.14173064 -0.25646752 0.09766748 
0.30538684 0.1395996 -0.07418098 
0.26666844 0.18119845 0.16222717 
0.0028899875 0.1881937 -0.21405286 
-0.12654927 0.07618052 -0.21330465 
0.07705859 0.39346096 0.1449542 
-0.21959646 0.091467395 0.047849264 
0.06393279 0.36896026 0.1436751 
0.24022038 -0.052595697 0.025180407 
0.2558471 -0.042648256 0.14120328 
0.14391834 0.05296788 -0.2936646 
0.20843828 0.24270757 -0.14032377 
0.03579063 0.034944262 -0.28863177 
-0.02759071 -0.30199853 -0.03570278 
0.063771665 -0.22443755 -0.19826964 
0.1377205 -0.21974866 -0.14563838 
0.15536487 -0.23749557 -0.015794119 
-0.06905463 0.14818473 0.22410627 
-0.10725408 -0.05633916 0.24166225 
-0.16344343 -0.16390002 -0.043186996 
0.032261577 -0.12976757 0.28088796 
0.29271248 0.05408616 -0.0329516 
0.05928106 -0.064829975 0.30661714 
0.13977474 -0.18239014 0.22484006 
0.1244155 -0.124405295 -0.2595814 
-0.19491202 -0.11302319 -0.016407803 
-0.21879506 0.08290346 -0.0034723054 
0.011850439 -0.12487169 -0.26885846 
-0.08958808 0.1676964 0.041301243 
0.056418385 -0.17127089 -0.2512909 
-0.076737046 -0.15150802 0.20618671 
-0.1820576 -0.123933844 -0.07235148 
3.1899544e-05 -0.23213804 0.19801106 
0.20075217 0.106755115 0.2779875 
0.278874 0.012178597 0.11021787 
0.0784614 -0.27959642 -0.046686366 
0.28865638 0.039005507 0.07827723 
0.014604902 0.19857219 0.21785219 
-0.02665134 -0.17029397 -0.23018984 
-0.101210766 -0.20060389 0.12647204 
-0.06237356 0.1733814 0.21852009 
-0.07977062 -0.15470167 0.20500314 
0.16383378 -0.16173843 -0.20627365 
0.26135445 0.1476905 0.1998482 
0.066723675 0.35635027 0.08977795 
0.29855692 0.16971199 -0.057329368 
-0.073837146 -0.33723563 -0.12319363 
-0.09576716 0.15021211 -0.16182412 
0.0037814782 -0.12632377 0.26844975 
0.18500419 -0.17772815 0.19193512 
-0.14659536 0.093699336 -0.012090439 
0.194521 -0.07371937 -0.23383471 
0.18614519 0.1814018 0.23335348 
0.23501088 -0.04005491 -0.158241 
-0.055961017 -0.34331027 -0.07778266 
-0.13602006 -0.018572742 -0.20700102 
0.24776988 -0.027449314 -0.07380917 
-0.071651705 0.20926704 -0.04206716 
-0.08465279 0.18081665 -0.120544195 
-0.08434438 0.10488278 -0.22315384 
-0.10690305 0.12026472 0.11719393 
0.07841122 0.23166858 0.1913027 
0.10615965 0.42642194 0.11674722 
-0.08514369 0.07059491 -0.23355037 
0.23982093 0.028185794 0.25160396 
0.11534089 -0.23914218 -0.13400859 
-0.16472246 -0.03824726 0.12843496 
0.26465428 0.12405796 0.20476694 
0.12943688 -0.06550144 0.2981827 
-0.17486934 -0.05139612 -0.124013394 
0.21934083 -0.029164128 -0.23306917 
-0.07499512 0.17364506 0.1284115 
-0.043569043 -0.33480638 -0.09721577 
-0.047346547 0.24481536 -0.07145496 
0.19555585 -0.12622681 0.22283214 
0.1499927 -0.1450297 -0.2203791 
-0.10293028 0.10116686 0.1563789 
0.23749924 0.074508734 0.24957499 
-0.04505475 0.22527955 0.17135128 
-0.08618755 0.17507035 0.061475854 
0.007023774 -0.06660629 -0.28424636 
0.13401769 -0.2695025 0.037915234 
-0.10925334 0.13402201 -0.18743311 
0.18309942 0.43856055 0.15070796 
-0.16920815 0.16282693 0.0529001 
-0.14975913 0.03497403 0.09427818 
0.2580865 0.32533512 0.13617682 
0.08502196 -0.2878681 0.073915474 
0.13200916 -0.18071802 -0.20038658 
0.028762609 -0.29291347 -0.06806649 
0.061243303 -0.25100136 -0.1621359 
-0.06826364 -0.0075339833 -0.24955699 
-0.07538404 0.20352326 -0.07163629 
0.31409225 0.14112617 -0.03862018 
0.18751024 0.16588312 -0.2368847 
0.27709872 0.19840391 0.12626883 
-0.04077862 0.01068443 0.2741904 
-0.1992341 -0.2837618 -0.08507082 
0.22940181 -0.084080786 0.223393 
-0.048143737 0.21479169 0.17584512 
-0.0569925 -0.05164498 -0.25349033 
0.14991371 0.19651613 0.22546501 
0.03599933 0.19139454 -0.21578458 
0.012094517 -0.1448936 -0.2687417 
-0.04054348 -0.012233545 0.27532953 
0.014674967 -0.2680172 0.15343887 
0.14307743 0.27687275 0.098543495 
0.019060502 -0.28160918 -0.11463851 
0.18523605 0.27661532 -0.06648007 
0.18038653 0.16583708 0.25111935 
-0.17626558 -0.06943639 0.09846054 
0.16353184 0.44511795 0.15982473 
0.25162002 0.3493542 0.11769513 
0.1949042 0.28040582 -0.03800364 
-0.010255721 0.28870088 -0.044203922 
0.043881398 0.011007602 -0.2991102 
-0.14093263 0.06561728 0.07718185 
0.17340896 -0.1835039 -0.047971692 
-0.0078105815 -0.055983935 -0.2751235 
0.111317955 -0.23821999 -0.1350546 
0.089374125 0.28254065 0.09147654 
-0.16590662 -0.17410687 0.008709501 
0.23641196 -0.038259532 -0.15670253 
0.21993971 0.31202558 0.13665721 
-0.013647053 0.24389848 -0.14903462 
-0.013438423 0.060264584 0.2795279 
-0.02672828 -0.1740159 0.2306188 
0.11614333 0.26609734 0.12882568 
0.086472 -0.17847365 -0.23979276 
-0.03633903 0.2114476 0.17846315 
-0.1134872 -0.12473872 -0.18511303 
0.16477384 -0.2196814 0.15129726 
-0.1580741 0.040968217 -0.010320311 
0.2797528 0.15132956 0.15999629 
-0.22394417 -0.3095275 -0.15009634 
0.26649672 -0.017420867 0.1331943 
-0.18934958 -0.07428754 -0.012020465 
0.21626517 -0.09499224 -0.104333766 
-0.039927002 0.21106596 0.15100063 
0.017184908 0.26298764 -0.13018678 
0.17484702 0.3881402 0.14363892 
0.05252679 0.23213014 -0.17456023 
0.2987849 0.10707089 -0.10125782 
0.092244655 0.2940442 -0.018040244 
0.12630838 0.15332602 0.26389274 
-0.09396343 0.16208318 0.070174985 
-0.06856093 0.11137922 -0.22870886 
0.008007677 -0.3033388 -0.017232787 
-0.30050027 -0.31010753 -0.11831876 
-0.06616704 -0.16456802 0.20796442 
-0.13482456 0.091609046 -0.073208995 
0.09740697 0.08993997 0.29486617 
0.15572533 0.036080107 -0.29119745 
-0.14510576 0.064540796 -0.077234946 
0.26775843 -0.014918863 0.11704368 
0.14030048 0.045374107 -0.30247173 
-0.07059492 0.20532405 -0.046423443 
-0.25423717 -0.26818615 -0.12337304 
-0.010158843 -0.2915086 -0.14332443 
-0.21302766 0.117480285 -0.013795115 
0.0008625876 0.2927237 -0.020593416 
0.24673693 0.2583984 0.03897377 
0.03368279 -0.29957262 0.080984555 
0.15305118 -0.24481384 0.093712464 
0.122475296 0.2374541 -0.17383689 
0.12865317 -0.081526905 0.30833507 
0.15987003 -0.11932728 0.26132184 
-0.10335546 0.11071235 0.15280265 
0.009112576 -0.2215326 0.2118501 
0.18501925 -0.14801402 -0.154088 
-0.1844969 -0.14801425 0.0267549 
-0.32862484 -0.35840723 -0.16435297 
0.23826146 0.26054415 0.051186148 
-0.18556182 0.13649164 0.083209105 
0.1457171 -0.21550663 -0.15232854 
0.24606453 -0.039056547 -0.020191517 
0.09520124 0.39241543 0.10892082 
0.12981226 0.23778304 0.17717752 
0.21247964 -0.0013006048 0.27324876 
0.0235282 0.21368107 0.20550352 
0.2680345 0.2346578 0.07765434 
0.04080374 -0.29434502 -0.072908126 
0.12672494 -0.27045792 0.04899979 
0.26889384 0.13930663 -0.15206134 
0.01725134 0.06612102 -0.280545 
0.23807962 0.26156974 -0.055997066 
-0.32166338 -0.33600777 -0.15816034 
0.12540178 0.014021622 0.31124878 
-0.17727219 -0.028432574 -0.015892291 
-0.11847437 -0.2193738 0.024792213 
0.11048969 0.2476691 -0.1633199 
-0.14633887 -0.046253253 0.17523056 
-0.10111197 -0.15494011 0.1829836 
-0.13405499 0.07376722 0.08785972 
0.18679313 -0.18204653 0.15517959 
-0.09625939 -0.056628525 -0.22582711 
0.256361 -0.025646452 -0.010345313 
-0.09994646 -0.28826663 -0.1746357 
-0.030637119 0.25201502 0.06629469 
0.21683644 -0.09916264 -0.105131395 
-0.16185887 -0.07547459 0.15536667 
0.13886611 0.26413772 0.13101475 
-0.07117273 0.15201464 0.20024143 
-0.1145114 -0.14175533 0.17935342 
-0.08656704 -0.1491783 0.19430958 
0.31471804 0.12069658 0.03152514 
-0.14700875 0.048489034 0.081025645 
0.07428074 -0.27089277 -0.11003395 
-0.1568737 -0.011866045 0.13433647 
-0.018034326 -0.2926588 0.051642105 
0.05810882 0.3143618 0.14616019 
0.022039592 -0.019061312 0.2986913 
0.1542245 -0.24625038 0.0130989235 
-0.019673921 0.2832307 -0.055599563 
0.01977747 0.20202881 0.22363852 
-0.0026420993 0.123635 0.26125246 
-0.21340807 0.087661244 -0.017407037 
-0.024787363 -0.29610658 -0.007790294 
-0.09684263 -0.14061713 -0.18672483 
-0.075909734 0.18985535 0.07137662 
-0.14923494 -0.10758658 0.16968276 
-0.13427158 0.11930469 -0.0050408435 
-0.005505576 0.12211534 0.2627293 
0.06163541 0.27917844 0.105852455 
-0.11858424 0.10128619 -0.16011232 
0.0041018985 -0.30051166 -0.056355715 
0.12916543 -0.12938063 -0.2536629 
-0.09055282 -0.15033591 0.19664244 
-0.122247234 0.017522682 -0.21612304 
0.06103231 -0.01633203 0.3086487 
0.0068272334 -0.0128358435 -0.28978783 
0.23858 0.3441712 0.16545634 
0.016827118 0.17994076 0.23553546 
0.20503476 0.3915155 0.114149354 
0.15058777 -0.17277406 0.22528404 
-0.024759447 -0.30772623 -0.14384368 
0.2688108 0.2880572 0.10358975 
0.26894644 0.041946337 -0.13874461 
-0.044840734 -0.17186525 0.22042373 
0.14551656 0.22491804 -0.19083191 
0.07448901 0.3360292 0.098254606 
-0.12371841 -0.06999877 -0.2005079 
0.26700327 0.09683534 -0.17290367 
-0.18388899 -0.056709573 0.02527896 
0.1645131 0.39162698 0.15642986 
0.10114921 0.27625737 0.11469747 
0.066818066 0.18131205 0.24140128 
0.07627301 -0.26379412 0.1602215 
-0.12804647 0.05492989 0.15440017 
-0.085753985 -0.25220853 -0.006951914 
-0.16841589 -0.14181405 -0.07340343 
-0.1743554 -0.08628666 0.13753831 
-0.16343059 0.0170806 0.03597375 
0.0649594 -0.25522557 -0.15370274 
0.12212737 0.4446989 0.15860984 
0.11006889 0.37620187 0.15239203 
-0.16169533 -0.17307091 0.02407144 
-0.123238415 -0.040679812 -0.20974465 
0.024374027 0.06258566 0.29135305 
0.12235091 -0.19521888 0.22916329 
0.28051856 0.15991198 0.15469539 
-0.07817635 -0.2236297 -0.12738234 
-0.13065991 -0.20053929 -0.053693656 
-0.21788101 0.10648867 0.008921826 
0.17854466 0.28286386 0.05100908 
-0.057682984 -0.11695277 0.2422898 
-0.12847199 0.113173686 0.06327262 
-0.0286675 0.15205853 0.2441135 
0.020337043 -0.27486274 0.1471257 
0.08615894 -0.048078686 -0.3033352 
0.14272784 0.024064459 0.31013662 
0.009307485 -0.3029623 0.051550355 
0.18987353 0.122946575 0.27330667 
-0.02742714 0.19677654 -0.19224885 
0.30065036 0.14364618 0.10328189 
0.06333729 0.27568486 -0.10388889 
0.15718189 -0.16598627 0.22993499 
0.26502436 0.28800002 0.12645009 
0.21837975 0.07026197 -0.24222676 
-0.01837194 0.25910527 -0.120340504 
-0.11775071 -0.3302692 -0.14143649 
0.06150754 0.22556256 0.19903442 
-0.3166786 -0.35211 -0.13715573 
-0.137292 -0.13018242 0.16382751 
0.23015627 0.2668537 -0.010599825 
0.01735399 -0.09481587 0.27860132 
0.2420938 0.21113329 0.16723248 
-0.05983973 0.2170538 0.055163063 
0.067317806 0.34133524 0.08047199 
0.16077268 -0.2239045 0.14942002 
-0.055190817 -0.33432114 -0.12300841 
0.01342039 0.29164314 0.017306438 
-0.037371065 0.22248289 0.14176506 
-0.043054134 0.035122786 0.27695042 
0.15318285 0.24132289 -0.1707509 
0.05419347 0.29256704 -0.03604294 
-0.09745943 -0.091237366 -0.21403667 
0.13409008 0.23282039 0.18808942 
-0.059779182 0.22661635 -0.006930563 
-0.024158763 0.24332087 0.16516237 
-0.021555401 -0.06654467 -0.26904726 
0.1724197 -0.21302834 0.08941414 
0.26624814 0.0073455777 -0.05525376 
0.24798176 -0.01787845 -0.11865935 
0.12485323 0.26953852 -0.117782176 
-0.027538039 0.24564646 0.087631896 
0.0759757 -0.010298049 0.30456257 
0.24249376 0.089564085 0.24636237 
-0.2036658 -0.27824226 -0.09241408 
-0.106912725 -0.16114774 0.17113847 
0.14127998 0.0045364914 -0.2979417 
0.11835137 0.19298354 -0.2246231 
-0.18054374 -0.052531518 0.06028395 
-0.26829496 -0.2727989 -0.12259836 
0.06297162 -0.06604063 0.30439016 
-0.041084684 -0.15055194 0.23080073 
0.07224775 0.09802098 0.29221305 
0.00038622523 0.29116485 0.016249824 
-0.12602417 0.06877122 -0.1791156 
0.22741936 0.08636483 0.26647937 
-0.021781094 0.2764648 -0.04993162 
0.17139465 -0.19308329 -0.08576478 
-0.09066865 0.15896668 -0.19711371 
0.29254746 0.16201295 0.091730766 
-0.039892174 0.104257606 -0.24150077 
-0.08340728 0.18950811 -0.07571965 
0.23050477 -0.09685564 0.1159848 
-0.01860201 -0.14905404 -0.24278884 
-0.08600323 -0.0619532 0.24182782 
0.14608464 -0.25358143 0.016178679 
0.25047272 0.22339545 0.14941607 
0.21549942 -0.025729636 0.2591805 
0.089491606 -0.28585768 -0.00069620507 
0.09452122 0.23529385 0.18456963 
-0.020018805 0.23503223 -0.1549974 
0.1261275 -0.25891253 0.09293028 
-0.16480707 -0.3341796 -0.08647022 
-0.14894997 -0.3373529 -0.113796316 
-0.1936653 -0.113748774 0.010733303 
-0.086327896 -0.23593475 0.08334967 
0.105302356 -0.21047252 -0.18437971 
-0.038780004 -0.22927858 0.1711303 
0.08327814 -0.07785113 -0.301259 
0.15911038 0.218067 0.20633206 
0.063737206 -0.10714843 -0.2896518 
-0.1288431 -0.2083725 -0.017403837 
0.24313298 0.2388556 -0.10815677 
0.03714436 -0.10725997 -0.28227958 
0.016165277 -0.038135 0.29658633 
0.26275253 0.0015917422 0.21489872 
-0.08679915 0.18219157 -0.08004378 
0.18790565 -0.11706262 0.23705123 
0.11099356 -0.1701162 -0.22785416 
-0.031894024 0.27755907 -0.038200717 
-0.035330277 0.21551585 0.20487891 
-0.052140687 0.23421857 -0.08449444 
0.11631977 0.24012691 -0.17043678 
0.27420706 0.10571566 0.19033107 
0.2288629 0.33762455 0.10272181 
0.3071268 0.0981188 0.122890875 
-0.076571256 0.19443715 -0.11565225 
0.1652668 -0.15193358 -0.20866881 
-0.0133630335 0.18957043 -0.19891459 
0.17919183 0.25609088 0.1380273 
-0.15876138 0.012216906 -0.14645979 
0.21922746 -0.099221975 -0.040473707 
0.14557095 -0.25036123 0.10445157 
0.23831941 0.0065852907 -0.20705774 
-0.18550514 -0.3134653 -0.14907487 
0.11874258 0.3892695 0.15653716 
0.11230799 0.05257352 -0.30085635 
-0.022199318 -0.19873238 -0.20688894 
-0.038457833 0.2584707 0.035731718 
0.044753082 0.33964923 0.109931596 
-0.21115917 0.11666106 0.048374355 
0.20353647 -0.028215673 -0.24007002 
0.16952251 0.28716233 0.03136594 
0.115532175 -0.029672652 -0.3044586 
0.20301385 0.28122124 0.0024948693 
0.23803799 -0.07789628 0.02954101 
0.24823645 0.2683532 0.07694197 
0.08452823 0.051670633 0.3054456 
0.07397868 0.387648 0.11690318 
-0.18904164 -0.097385354 0.12843709 
-0.11711964 -0.17881088 -0.121286474 
-0.103936404 0.07675119 0.24325892 
0.29229707 0.18474554 -0.025637105 
-0.25593406 -0.2731259 -0.14636359 
-0.06061471 0.20215498 0.114076376 
-0.17391407 0.11357866 0.067630135 
-0.16638142 -0.050553344 0.13319515 
-0.18338858 -0.11499848 0.118820526 
0.2587272 0.15492147 -0.16392535 
-0.133918 0.0988531 0.067599915 
0.051538907 -0.2310086 0.21572335 
0.26913556 0.22422022 0.10732752 
0.09368417 0.41209835 0.12420258 
0.2466939 -0.010180073 -0.1665445 
0.2426149 -0.058173575 0.023032397 
0.116145924 -0.0694203 0.3095448 
-0.02997706 0.27565083 -0.0484525 
0.15018879 0.13034384 -0.26922882 
0.19700752 -0.04387983 -0.23947935 
0.13029997 0.19877206 -0.22823 
-0.16823253 -0.08126014 0.13717724 
-0.004380094 -0.12465929 0.27287662 
-0.14191705 -0.038989015 0.18832217 
0.28816554 0.040067717 0.07937073 
-0.07638677 0.08651409 -0.23505257 
0.023329979 -0.2396868 -0.18547826 
-0.10229492 -0.22285782 -0.08788894 
0.057784148 0.33846658 0.14904931 
-0.12703718 0.08140849 -0.16838652 
0.04241989 -0.23703235 -0.17423987 
-0.17919856 -0.037709046 0.026854573 
0.024569163 -0.28050587 0.13671273 
0.15158215 -0.22401501 0.155675 
0.20289811 0.24333991 0.15070459 
-0.19963372 -0.10005301 -0.049376644 
-0.07594544 -0.1447904 -0.20510618 
0.070685446 -0.12300398 -0.2771535 
0.2135308 -0.13676012 0.15357077 
0.261899 0.018462444 -0.15628797 
-0.16436306 -0.33603 -0.09436376 
0.2625954 0.030084616 -0.16610776 
-0.05550779 0.18451841 0.17298698 
-0.108838364 -0.061304368 -0.21474111 
-0.18399379 -0.08245722 0.067702 
0.25313446 0.2189484 0.14314291 
0.13355002 0.29127425 -0.0027079934 
-0.12732555 -0.2016497 0.056864925 
-0.18397236 -0.118289895 0.11403132 
-0.031900104 -0.047375273 -0.27118516 
0.17483938 0.4216284 0.121229135 
-0.001147417 0.25034922 -0.13781403 
0.25119203 -0.037152424 0.0041097077 
-0.03798245 0.24564372 0.08398831 
0.14123 0.20690201 -0.20446213 
0.096932866 0.13318343 -0.2677863 
-0.21177381 0.11947889 0.026377803 
0.104457386 -0.27411622 0.09362535 
0.047216155 0.27913108 0.1271992 
-0.13033897 0.06569526 0.1294765 
0.19242498 -0.15058652 -0.08627965 
-0.10089627 0.168951 0.011547061 
0.051210932 -0.07746726 -0.29529822 
0.24361955 -0.04710805 0.22495498 
0.12369963 -0.105697 -0.26766044 
0.24668823 -0.046180446 0.010491716 
0.18957953 0.14640713 -0.24678753 
0.22739974 0.14042097 -0.21710292 
0.26614183 0.06864326 0.21293442 
0.31364575 0.12768528 0.055528063 
-0.11557049 -0.2031955 -0.08798477 
-0.18941076 0.10580172 -0.025042892 
-0.17945829 -0.038355596 -0.08820117 
0.09774086 -0.24650247 -0.14237219 
-0.08921079 0.09232146 0.24828973 
-0.16525479 -0.104686216 0.15261589 
-0.016928151 0.23243816 -0.16002694 
-0.08386811 0.17855841 -0.13304326 
-0.10776902 -0.3399132 -0.0677557 
-0.09461573 0.16313782 0.059599463 
0.11216307 -0.14182588 0.2822387 
0.118673615 -0.12147601 -0.26961863 
-0.034320522 0.23489052 0.17173482 
0.064283 0.35312828 0.15479219 
0.16664962 0.1770485 -0.23360702 
0.03426458 0.21622886 -0.19045931 
-0.11729994 0.06863228 0.17672728 
0.25375023 -0.038572382 0.039161496 
0.21664122 0.17505172 0.22557054 
-0.1715449 -0.022610577 -0.15549454 
0.26195085 0.25234634 0.017864011 
-0.109807506 -0.020804048 0.2397224 
-0.3228368 -0.35377097 -0.1260562 
0.17721708 -0.2055154 0.016410602 
-0.16097642 0.02624181 0.041431222 
0.19914429 0.061486345 -0.26223442 
0.25986725 -0.035528306 0.11006277 
-0.24380822 -0.27151516 -0.10415664 
-0.1630487 0.020046957 -0.077990375 
-0.1628668 -0.13979797 -0.100903854 
-0.12930584 0.122025505 0.041365385 
-0.054951128 0.22288099 0.07380957 
0.19033651 0.047415495 -0.26213858 
0.09336717 -0.2191505 0.22347243 
0.07627915 0.3471353 0.16151796 
-0.038397007 -0.25932622 -0.16657516 
0.17738375 0.44236305 0.14511555 
0.06990333 0.29478458 -0.007968463 
-0.014190727 0.27277926 0.057135236 
0.20930403 -0.11710444 -0.067892365 
-0.11340201 -0.3093189 -0.045353524 
0.24613333 0.117139146 0.23380817 
-0.14333738 0.03353854 -0.19276476 
-0.09570964 0.16694188 -0.07465375 
-0.026385186 0.1436293 -0.23045895 
0.056181543 -0.21305868 -0.2156336 
-0.052501887 -0.19860294 0.18732528 
0.013545322 0.28591737 -0.065013826 
-0.15173247 -0.26769865 -0.13666129 
0.065112375 -0.2907521 0.08365306 
0.106271416 0.3766931 0.1607645 
-0.07626363 -0.06999161 -0.23771697 
0.05794573 0.05696443 -0.2913255 
0.28208935 0.03082483 0.015009785 
-0.051524375 -0.08732382 -0.24939464 
-0.20136818 -0.13141 0.016001258 
-0.018574407 0.25181612 -0.13167971 
0.30522248 0.09949076 0.13695808 
0.11452374 -0.09941264 0.3022208 
-0.23446867 -0.28381735 -0.1509813 
-0.010120677 0.18427481 -0.22073326 
-0.1069023 0.11987628 -0.16796356 
-0.10693704 0.077821255 0.23777774 
-0.07610292 -0.18517214 0.18191634 
0.17308837 0.05380992 0.29385254 
-0.12258492 -0.058664247 0.21813118 
-0.051797416 -0.33548647 -0.11034796 
0.09986583 -0.17269005 0.26217344 
-0.012669284 0.26977092 0.017211039 
0.1853134 0.2729948 -0.084049635 
-0.102011584 0.15082666 -0.10353278 
0.09558523 -0.27230564 0.10681004 
0.25903034 -0.020037811 -0.005681946 
0.19884644 -0.02646857 0.28033218 
-0.07806105 -0.04954544 0.2561982 
0.15415023 0.26742542 0.11466941 
-0.109810695 0.12877513 0.099403314 
-0.040677525 0.25321913 -0.038104113 
-0.06606367 -0.26353103 0.06866254 
-0.17548682 -0.3092503 -0.068796806 
0.18528423 0.25020716 -0.13854423 
0.028835746 -0.01706034 -0.29401284 
0.09378714 0.42243207 0.14196181 
0.09490599 0.27607772 0.11405683 
0.0646013 0.33303854 0.08591482 
0.13120571 0.24829175 -0.15758476 
0.26863292 0.23988053 -0.038047 
0.1768969 -0.15344326 -0.16344853 
-0.03850538 -0.25491148 -0.17310724 
-0.03534539 0.19020018 -0.19247009 
0.2312174 -0.06642419 -0.048921276 
0.020631948 -0.3032863 -0.036045864 
-0.19200625 -0.27333966 -0.10907766 
-0.14274602 0.10119807 -0.015719254 
0.28060272 0.22624983 0.015143391 
0.061515633 0.30219454 0.14160323 
-0.034373358 -0.10440759 0.26045033 
-0.025709447 0.22616163 -0.16513295 
0.0066206697 -0.2922978 -0.11804083 
0.14912148 -0.20988499 -0.15470345 
-0.12903155 0.11213019 0.064347245 
-0.1377006 -0.32685328 -0.14165199 
-0.00028896556 0.081192315 0.28005108 
-0.027445558 0.11277961 0.26194942 
0.0058297683 0.18140821 0.23076591 
0.2484092 -0.02666683 0.22520134 
0.20334937 0.23714298 -0.15345547 
0.02877086 0.08545135 -0.2751763 
0.1315521 -0.12008298 0.28790718 
0.21782789 -0.10009615 0.22249942 
-0.077775694 0.17469946 0.113490246 
