-0.27293622 -0.2259221 0.09916234 
0.18940303 0.20120242 0.20395654 
0.30171403 0.2668537 0.06757076 
0.016376935 -0.03260449 0.014559415 
0.39540488 0.26475295 0.1178107 
-0.12660888 0.049994104 0.094618686 
-0.20792288 -0.3469255 -0.3101196 
-0.055922065 0.030951131 -0.25161207 
0.28871235 0.32797068 0.08522585 
0.14826655 0.42281145 0.094951674 
-0.14214613 0.16948429 0.007082494 
0.10341574 0.11105244 0.393213 
0.19967681 0.18948191 0.16734375 
0.14720517 0.21660721 0.5015567 
0.011603657 0.108955614 0.29468197 
-0.17258364 -0.38685971 -0.35362703 
-0.3476424 -0.24802572 -0.061491456 
-0.40826473 -0.3214911 0.068128414 
0.36017087 0.22701302 0.09394673 
0.553988 0.15454863 -0.1089785 
-0.26517072 -0.2668294 -0.33311468 
0.25274843 0.17267162 -0.06523972 
-0.1326669 -0.3447689 -0.36031932 
-0.14831437 0.13343433 -0.060388647 
0.050726328 0.009242662 -0.054804996 
0.13033332 0.3239616 0.1818734 
0.24630661 0.23957722 0.20171478 
0.011540778 0.20777425 0.34568593 
-0.060087983 -0.21661225 -0.33048484 
0.260097 0.32372317 0.014762849 
-0.25252792 -0.03942986 0.101721674 
0.32310224 0.20613733 -0.18313524 
-0.31042242 -0.20889924 -0.05341772 
-0.09715724 0.31463045 0.0602948 
-0.10931037 0.23026645 -0.020552285 
0.22769435 0.38278452 0.08972057 
0.30128235 0.2996479 0.29157224 
0.4561153 0.18568188 -0.16642722 
-0.17121214 -0.15020998 -0.3147452 
-0.23936206 -0.21790521 0.101646036 
-0.20360598 -0.3472478 -0.31093052 
0.06973556 0.23728497 0.429519 
0.33209658 0.26825112 0.23381351 
-0.09827289 0.2732336 -0.02595367 
0.12849726 0.43018734 -0.010422041 
-0.41812062 -0.20792547 -0.02067178 
-0.26227975 -0.16524349 -0.018851038 
-0.076941215 -0.061272122 -0.06042252 
-0.20227298 -0.18391922 -0.30805603 
0.36200306 0.04631825 0.1284237 
0.1976702 0.12448622 0.12447574 
-0.109210394 0.1854754 0.05893895 
0.2011146 0.17920992 -0.20797573 
-0.026133835 -0.1856168 -0.24760716 
-0.24679935 0.033026867 -0.1561179 
-0.0023954436 0.32242656 0.18320702 
-0.014499584 -0.13057418 -0.17393476 
-0.14344376 -0.36529523 -0.4517777 
0.40135568 0.249319 0.116956465 
0.32106683 0.11387385 -0.13575304 
0.09572966 0.33788672 -0.13406672 
-0.21202421 -0.013502189 -0.0057498906 
0.1444191 0.16384022 0.17726555 
-0.07509454 0.35672104 0.053343553 
0.122987054 0.20250322 0.22041295 
0.025668085 -0.029649464 -0.12831347 
0.089880385 0.34242824 -0.13495103 
0.13075922 0.18452592 0.21619818 
0.11474146 0.44302103 0.049647387 
-0.02158388 0.3647962 -0.07672553 
0.06687253 0.08605558 0.38069555 
0.2590785 0.24742769 -0.03216092 
0.21415627 0.21083198 0.474137 
-0.020074118 0.21813297 0.29476973 
0.5205217 0.16390255 -0.13125385 
0.06298807 0.28109998 -0.15311733 
0.009760629 0.39517716 -0.059925124 
0.07983123 0.20005295 0.24398626 
-0.004733718 -0.1300989 -0.17971487 
0.19087172 0.389915 0.12486533 
0.174282 0.11868581 0.50503916 
-0.011154018 -0.18412967 -0.3097678 
0.16401868 0.23069264 -0.17247984 
-0.35637504 -0.3859353 0.032146726 
0.25207722 0.20364852 0.48966262 
0.40101826 0.19042078 -0.13658944 
0.019642767 0.23413798 0.29146385 
-0.040210295 0.38839498 -0.0044716005 
-0.35071352 0.041264653 -0.2018189 
0.12712878 0.43726417 0.067709826 
-0.14993478 -0.38341814 -0.41331246 
0.02925722 -0.045336794 -0.25374433 
-0.12189261 -0.09536902 0.12841336 
-0.0078981 -0.033915333 -0.28353396 
0.40393555 0.2881561 0.054588556 
0.27962697 0.079030395 0.082404844 
0.014116561 0.18040022 0.46089655 
0.26342824 0.19419613 -0.089784816 
-0.10403886 0.019610802 -0.23458052 
0.035745826 0.36410022 0.17088436 
0.33620882 0.14071198 -0.24742776 
0.36893052 0.06511158 -0.17546494 
0.12437153 0.36542165 -0.108979754 
0.30828372 0.03126046 0.17769074 
-0.068447545 0.027844446 0.09075806 
0.039429285 0.20541893 0.46495372 
0.03843965 -0.08735601 -0.25054532 
0.3646309 0.041306023 0.15267019 
0.30797607 0.1911388 0.034074664 
-0.28972304 -0.17626373 0.105564564 
0.4289026 0.069640495 -0.21628815 
-0.21550953 -0.3274158 -0.40767008 
0.022623977 0.23114678 0.40232554 
0.1965277 0.3331275 -0.08983509 
0.013355815 0.08898728 -0.14584023 
-0.15693279 0.106181934 0.02992771 
0.081883855 0.1763413 0.23464282 
0.24965377 0.16685212 -0.024551908 
-0.00042708465 0.357584 -0.1039619 
0.35062182 0.112185776 -0.14278613 
-0.20062533 -0.38022563 -0.33128056 
0.21304637 0.10050519 -0.008201316 
0.19689505 0.2306274 -0.19160399 
0.42727426 0.06674777 -0.20937125 
0.16076393 0.17775089 -0.19086595 
-0.06884506 -0.059078187 -0.29280594 
-0.1948254 -0.3746826 -0.3474278 
-0.1956256 -0.19242388 -0.26470843 
-0.33977264 -0.3646018 0.05162941 
-0.093461275 0.32546103 0.01764506 
0.05477761 0.4277655 -0.034556888 
0.10678648 0.42663348 0.11106209 
0.22818467 0.37713712 0.018612541 
-0.122491956 -0.25934744 -0.35155615 
0.12486171 0.11892493 0.45458102 
0.4788096 0.11911791 -0.14576797 
-0.16370746 -0.3988835 -0.3388718 
0.22301136 0.30049577 -0.05948785 
-0.039566565 0.1285593 -0.15327881 
0.13562714 0.07008478 0.051680114 
-0.13555457 -0.059350926 -0.17512712 
0.38537693 0.18157318 -0.12496354 
-0.21112752 -0.05957791 0.15118726 
0.5659171 0.14938243 -0.118518375 
-0.10088901 -0.0515285 -0.10046298 
-0.18285678 -0.37408087 -0.32009336 
0.19165468 0.19266358 -0.20434614 
-0.108605966 0.264754 0.07978177 
-0.029418701 0.14995806 0.1950445 
-0.07831229 -0.051915567 -0.2880054 
0.28882918 0.29283726 0.27611387 
-0.306035 -0.22801495 -0.04980512 
0.27852723 0.29966 0.048387505 
-0.12946594 -0.34757602 -0.3891186 
0.076968774 0.13162296 0.31909406 
0.22557585 0.25228387 -0.12851259 
-0.10243001 -0.10133083 0.060524866 
-0.034549285 0.32246578 0.15927964 
0.01957982 -0.16670914 -0.26772204 
-0.06777487 0.34767607 -0.017540654 
0.3153722 0.12340739 0.066139504 
-0.1197287 0.19346029 -0.03901685 
-0.07813126 0.040227447 -0.23214917 
-0.13546376 -0.028468534 -0.05464643 
0.2335344 0.18619132 0.5206036 
-0.009316404 -0.16936398 -0.2378891 
0.416059 0.14742349 -0.12777357 
0.15325178 0.4211422 -0.019137194 
0.14643118 0.0774158 0.052511282 
-0.08391283 0.2721984 -0.070861116 
-0.17477825 0.07166149 -0.057008673 
-0.24386291 -0.2575029 -0.344906 
-0.16455518 0.011572602 -0.111110814 
0.48086515 0.067992434 -0.21769789 
-0.3686999 -0.3053722 -0.06281417 
0.10326351 0.3228178 -0.14768204 
-0.41650954 -0.22301655 0.005049194 
0.3682464 0.0905801 -0.23871593 
-0.089310825 0.10265054 -0.14912744 
-0.005007823 0.059413306 0.1019471 
0.035986245 0.38441023 0.1593236 
0.23261859 0.15753259 -0.21469072 
0.11703304 0.18444757 0.37321323 
0.09694848 0.067958616 0.14794785 
-0.16600275 -0.22585395 -0.22969164 
-0.35618353 -0.1672119 0.06745797 
-0.042145863 0.3167672 0.15487285 
0.1616431 0.37847888 -0.07337507 
0.2079988 0.23487441 0.19736233 
0.5452494 0.047792554 -0.16723236 
0.019500094 0.10924716 0.3358144 
0.1471937 0.22990727 0.20757607 
-0.3965404 -0.37223408 0.06804163 
-0.0030443447 0.1288718 -0.1462176 
0.39168462 0.23293933 0.10983852 
-0.0603879 -0.14551343 -0.1966661 
-0.17024615 -0.28161368 -0.37434927 
-0.22522658 -0.3460556 -0.36504045 
-0.12878597 0.036519095 -0.16170254 
0.08257787 0.29468566 -0.159638 
0.009507205 0.27367488 -0.1475347 
0.3577479 0.1913608 -0.24018846 
-0.37429932 -0.16017881 0.031099306 
0.25999883 0.34691656 0.045240883 
0.0414549 0.12019785 0.18783547 
-0.109705575 -0.1312398 -0.21597977 
0.10767309 0.23413898 -0.15827042 
0.07239996 0.35387275 0.18314417 
0.18821993 0.08504592 -0.06563466 
0.43779466 0.19152252 -0.15485501 
-0.17041902 -0.11410615 0.1525313 
-0.068180956 0.30494574 -0.077837534 
-0.04132118 0.31640288 0.15768984 
0.3149445 0.2741425 0.12835844 
0.0031701874 0.20343617 0.33858365 
-0.16837163 0.07987225 -0.07439645 
0.032458823 0.39836437 0.14335383 
0.28821138 0.2337825 0.02192949 
0.13116741 0.036025383 0.00023006504 
-0.0048646093 0.11895309 0.24587506 
0.05347287 0.21148191 0.32855067 
-0.3992028 -0.3587649 0.029851126 
0.1421792 0.22887132 0.20935212 
-0.21404724 -0.32274762 -0.29639775 
0.049555954 0.34720272 -0.12933476 
-0.05592753 0.23336565 0.15363622 
-0.18542334 0.0630091 -0.06889413 
0.23555125 0.09865577 0.08076025 
-0.22935452 -0.32080865 -0.29823974 
-0.04217419 0.23859963 0.22629939 
0.42958942 0.17938463 -0.13282292 
0.5747227 0.07261543 -0.15360889 
0.08888457 0.4460278 0.030284861 
0.13388182 0.12127045 0.15740737 
0.21190967 0.10284243 0.1211384 
0.08670253 0.22798428 0.45777044 
0.27798474 0.16087134 0.052991994 
-0.3412028 -0.3088489 0.008239061 
-0.35899466 -0.2725986 0.033250682 
0.14529057 0.18973054 -0.17672466 
0.24431354 0.16888766 0.50615096 
-0.099037655 -0.42594638 -0.3647532 
0.012707064 0.21319053 0.3351301 
0.31875783 0.19606365 0.04648262 
0.036760863 0.21734901 -0.15983388 
0.2564699 0.041257136 0.12296334 
-0.0029706997 0.1143779 0.29310796 
0.015769968 0.18742418 0.46230915 
-0.16682926 0.02661065 0.10981344 
-0.12967782 0.11965665 0.06078395 
-0.1557473 -0.040548544 -0.035084143 
-0.15744421 -0.36612016 -0.31830254 
-0.08724502 -0.09458025 -0.15109912 
-0.074832045 -0.23765832 -0.27419835 
0.3245427 0.2863212 0.1005722 
-0.11839114 -0.2597728 -0.25029957 
0.067595854 0.017098488 0.053157747 
0.052969586 0.093468845 0.34357196 
-0.2946237 -0.13523957 0.07305171 
0.44219142 0.06629443 -0.17471877 
-0.15253624 0.13497356 -0.050980475 
-0.3014282 -0.13884902 -0.011492372 
0.3375192 0.087640375 -0.2212619 
-0.15362392 -0.31525207 -0.36398998 
-0.17132115 0.08832215 -0.060802855 
-0.0055639013 0.23105562 0.29238644 
0.40163994 0.27054843 0.059537567 
0.31939235 0.2854673 0.22195944 
0.25774077 0.11411293 0.18384399 
-0.15116982 -0.33111775 -0.33977988 
-0.09979966 0.30408436 0.0013898484 
0.40555462 0.0608357 -0.1818943 
-0.14931025 0.16305512 0.0005563643 
0.2524443 0.1722024 -0.08555802 
0.019328684 0.14445755 0.44541353 
0.08374394 0.033663414 -0.039094638 
0.29338995 0.2493775 0.03453277 
-0.37373433 -0.1916666 0.057308663 
-0.019220205 0.1265067 0.25073415 
0.5019918 0.040667105 -0.17519408 
-0.12095452 -0.36632705 -0.3772572 
-0.3868624 -0.17461479 0.016029965 
-0.25801235 -0.20089382 0.11539468 
-0.38035005 -0.2799799 -0.0790313 
0.15239567 0.23781303 -0.16114642 
-0.3071528 -0.39936727 0.05852987 
-0.018593548 0.25264445 0.24609442 
-0.00038353624 0.20726797 0.3320313 
0.13033034 0.18530922 0.5125829 
0.26591825 0.11265322 0.18616058 
0.3268301 0.27272084 0.22238766 
0.119602285 0.04125202 0.010433124 
0.51569617 0.16685441 -0.13904536 
0.12022471 0.18411629 0.3791641 
0.45939186 0.15572844 -0.23136157 
-0.3264816 0.04309438 -0.1924909 
0.3365968 0.122739755 0.14095514 
-0.4517601 -0.27079934 -0.09064639 
0.1846072 0.17036973 0.15978774 
0.08891661 0.39013425 0.15548924 
-0.27536306 -0.25171888 0.01565197 
-0.2665044 -0.06346479 0.07427253 
-0.11375576 0.26806405 0.03330794 
0.16969374 0.35331184 0.1594944 
-0.10143254 -0.031885356 0.1122199 
0.03615355 0.4103376 0.12650022 
-0.4042098 -0.34567305 0.08566477 
0.50458777 0.16525733 -0.14392845 
0.09207826 0.112834595 0.18476932 
-0.10230744 0.25895095 0.102153055 
-0.23693565 0.048714828 -0.10869851 
-0.24638933 -0.2024261 -0.019102538 
-0.17018008 0.09528033 0.00020294994 
-0.39885995 -0.29504165 -0.09601052 
-0.36722153 -0.36798325 -0.0019213906 
-0.12619036 0.06166974 0.08732246 
-0.09810986 0.2967218 -0.02441491 
0.43705633 0.19723246 -0.17363113 
0.0214172 0.015873112 0.056830913 
0.07227513 0.10807448 -0.12044725 
0.2501073 0.16370083 0.036549 
0.3960803 0.12371875 -0.2674826 
-0.33203948 -0.26802406 -0.038322106 
-0.14089134 0.1706798 0.011388401 
0.03049015 0.2585233 0.24525577 
-0.10260851 0.21975759 -0.05030717 
0.43751556 0.3033281 0.061243042 
-0.050815955 0.052556876 -0.211797 
-0.11588994 0.14351407 0.07318668 
-0.18814737 -0.2678689 -0.37564948 
-0.29914674 -0.2557526 -0.028382603 
0.14871392 0.064426735 -0.06524476 
-0.13491267 0.027081631 0.10294122 
0.124717176 0.43800542 0.06563303 
0.52008903 0.040850118 -0.21110475 
-0.2745725 -0.29074067 -0.36767408 
-0.15146469 0.034637395 -0.12217828 
0.32778597 0.25404462 0.13450184 
0.32056284 0.09560109 -0.2202538 
0.10347328 0.20850028 0.4703576 
0.3513176 0.20948596 -0.17491135 
0.15929511 0.24730597 0.45885494 
0.059785746 0.20585038 -0.16240206 
-0.20476207 0.022581398 -0.012804367 
0.102837145 0.36605194 -0.111718364 
-0.10059605 -0.09296574 -0.150457 
-0.11404594 -0.06483197 -0.26066467 
0.1583902 0.082028404 -0.079386935 
0.018451883 -0.04070146 -0.120855786 
0.051360555 0.12507884 0.19864568 
0.48879653 0.057647888 -0.2128936 
0.14695123 0.13563336 0.13534395 
0.45908362 0.27751216 0.07462307 
0.5600979 0.08281372 -0.14807466 
-0.0796268 -0.13198029 -0.31842607 
0.5655218 0.17485905 -0.11562331 
-0.19295515 -0.2074843 -0.35657766 
-0.23348829 -0.16410431 0.13293786 
0.29204074 0.14220774 0.051764358 
0.061656304 0.44356915 0.045975152 
-0.39605162 -0.33876354 0.08138735 
0.3266781 0.10383831 0.119470924 
0.10398182 0.1732358 0.33608603 
-0.09442645 0.13938002 0.0904745 
0.26012996 0.045046076 0.13487281 
-0.0496891 0.09037659 -0.17232902 
-0.19657783 0.033300024 0.06256644 
-0.08895575 0.32629645 0.06508056 
-0.20013726 0.022433136 -0.02119232 
0.49502072 0.17273498 -0.16356897 
-0.28422028 -0.2559229 0.039569188 
0.2708488 0.16613327 0.5132691 
-0.13562919 0.03309623 -0.14281833 
-0.23660962 -0.035803203 0.0075142016 
-0.119757295 -0.0983187 0.12529036 
-0.4595466 -0.2937293 -0.053668328 
-0.14155479 -0.2447744 -0.35949025 
-0.13758652 -0.04394014 -0.17373003 
-0.0027894264 0.387204 0.13574754 
0.068322666 0.14486337 0.31208596 
-0.37056118 -0.3706353 0.013791664 
0.059265297 0.2838181 0.21761908 
0.04088956 0.40585688 0.1381321 
-0.2757182 -0.24995948 0.030939683 
0.038790833 0.22988616 0.27969092 
0.35055512 0.23727228 0.058560047 
0.02558109 0.0056042685 -0.1610704 
0.03664351 0.4174646 0.117961 
-0.3364298 -0.3737653 0.07782033 
-0.030318981 0.10108528 -0.1613749 
-0.12686631 -0.38057724 -0.4166653 
-0.24163139 0.009900429 -0.15223171 
0.12013148 0.15928431 0.18172282 
-0.045873135 -0.17848332 -0.33374 
0.034547906 0.18545574 0.47253934 
0.29172897 0.26733515 0.16503163 
-0.08779269 -0.11457028 -0.298925 
0.09121636 0.1483315 0.34782964 
0.22820166 0.25434634 0.1918333 
-0.07237458 0.31187737 -0.06498905 
-0.4362371 -0.310327 0.0074031753 
0.10032709 0.054785665 -0.062336013 
0.079196885 0.076521754 -0.09405502 
-0.12135509 -0.262395 -0.34851182 
0.029324101 0.23712619 0.4270435 
-0.20892075 -0.28540948 -0.38575056 
0.5637398 0.093726166 -0.123751946 
-0.06783081 0.030844584 -0.2477049 
0.039744474 -0.08899052 -0.21473712 
0.32009086 0.28494528 0.22203271 
0.028546344 0.16702811 0.4705562 
-0.09770892 0.13111655 -0.1361565 
-0.06974723 -0.21795604 -0.2405261 
0.27444792 0.1837565 -0.024715107 
0.2496644 0.3624138 0.085027225 
-0.13119933 0.020458346 0.11091956 
-0.028811574 -0.16751315 -0.31867394 
0.39505398 0.26865983 0.07700706 
0.21911758 0.13208398 -0.08560097 
-0.12048724 -0.06253242 0.12872805 
-0.19567616 -0.21145205 -0.35647327 
-0.15119822 0.14403316 -0.04292294 
0.36625564 0.19850628 -0.24046698 
0.053901482 0.17392586 -0.14926918 
-0.120540544 -0.12600382 0.055080917 
-0.20588003 0.03106194 0.043817956 
-0.23625407 -0.21829048 0.011200514 
-0.13047765 -0.38610578 -0.33192426 
-0.007522709 0.1985883 0.39370987 
-0.31001925 -0.37369993 0.03264687 
0.069480605 0.2566884 0.22737776 
-0.1700149 -0.27784 -0.26408443 
-0.006451049 0.11582007 0.26034153 
0.32664546 0.18181507 -0.22430123 
-0.10814612 -0.08505515 -0.14329317 
0.06859795 0.16244715 0.24350555 
0.31800124 0.05032569 0.19921587 
-0.15675183 -0.08288646 0.15151167 
-0.09382671 -0.24702701 -0.33257607 
-0.24120247 -0.2893567 -0.380643 
0.14300825 0.4175067 0.10977199 
0.027162423 0.0968144 -0.13575925 
-0.24437557 -0.09230947 0.13423061 
0.19564646 0.12324945 0.039123073 
0.07728288 0.17727654 0.24108534 
0.22048876 0.3721187 -0.0077073313 
0.1555549 0.40238833 -0.052574508 
0.1975468 0.40903646 0.08064346 
0.2293892 0.24698544 -0.17186368 
-0.15719056 0.015288755 -0.11406581 
0.19869997 0.24971347 0.4574479 
0.11399391 0.10967522 0.4498677 
-0.15059716 -0.15999864 -0.35016176 
0.26927918 0.21543345 -0.037074167 
0.56596327 0.16056466 -0.13814639 
-0.11910465 -0.16259505 -0.2274932 
-0.11245696 0.22831103 0.0714838 
-0.06980182 0.2815865 -0.091086455 
-0.047812715 0.3673347 -0.036758747 
-0.23801704 -0.12974937 0.13788477 
0.17300624 0.3806386 0.14275213 
0.13254064 0.37103355 -0.099379666 
-0.16198944 -0.104571 0.15033902 
0.1733799 0.23346683 -0.17926656 
0.15309757 0.4247413 0.08352308 
0.518746 0.09577495 -0.21368375 
0.24190079 0.16097678 0.025457816 
-0.1732825 0.07324675 -0.081761844 
-0.17448597 -0.09355817 0.15544175 
0.2440364 0.20755623 0.20444795 
-0.010707182 0.41313887 -0.0007207527 
0.36446765 0.19509909 -0.24283856 
0.03254384 -0.098855816 -0.19988689 
-0.056449685 0.35264772 0.107264556 
-0.16776758 0.11039759 -0.00013896958 
0.23877752 0.1551731 -0.010081864 
0.42821562 0.15114036 -0.26065323 
0.5548393 0.105313025 -0.18193103 
0.505196 0.13305071 -0.13548087 
0.15047151 0.16907056 0.17255095 
0.09075532 0.17947419 -0.15738092 
-0.25781944 -0.20427407 -0.031646717 
-0.27251238 -0.0013713662 -0.12320042 
-0.049870037 0.35172004 0.114939876 
0.037256006 0.20934631 0.4620724 
-0.09390086 0.22582492 -0.067205496 
-0.42005852 -0.33714798 0.067813486 
0.29447338 0.20636263 0.018536516 
0.2758251 0.14622869 -0.22366312 
0.022116628 0.014189323 -0.16790779 
-0.05791202 0.37534449 0.054367535 
0.06941589 0.23672861 0.44515178 
-0.13116573 0.01925791 -0.1826136 
0.074696235 0.29637688 -0.15454258 
-0.079175025 0.31963924 -0.03395614 
0.10368996 0.29799816 0.20278437 
0.3575158 0.18618649 -0.1306336 
0.4197862 0.09416201 -0.24399707 
0.35495 0.062652186 0.13852054 
0.06247245 0.029795388 0.06819297 
0.10229875 0.17824277 0.3510559 
-0.004525935 -0.19133474 -0.29745716 
-0.32003933 0.033780582 -0.17601533 
0.2448186 0.22079015 0.50905865 
-0.09034203 0.116348274 -0.14618894 
0.014635452 0.27204046 0.22556572 
0.12710907 0.44053534 0.034817897 
0.36549708 0.19046843 -0.13114418 
0.33856773 0.29037806 0.3000943 
-0.04517744 -0.085706726 -0.12733927 
0.14514618 0.17246236 0.5244592 
0.02067708 -0.13267134 -0.26885298 
-0.048556224 0.22536851 -0.12911564 
0.11151449 0.17593254 -0.15086082 
0.45414066 0.19246003 -0.18106556 
-0.041812148 0.34954914 -0.06201802 
0.31607813 0.023830224 0.16365364 
0.46009284 0.06919128 -0.18410367 
-0.18741585 -0.17903139 -0.33758518 
0.08970357 0.12291303 0.3283104 
-0.14964887 0.030556971 -0.12339092 
0.2824715 0.30788627 0.11960801 
-0.004540135 0.17787537 0.35830387 
-0.11079393 0.2659178 0.062807195 
0.10829522 0.2109874 0.35350108 
-0.14802504 -0.40497732 -0.3589557 
0.05437663 0.2077529 0.32415748 
0.21791182 0.37558997 -0.008472251 
-0.06825092 -0.11573426 -0.3058396 
-0.28664434 -0.31661662 -0.35226613 
-0.0043288795 0.007731666 -0.25661522 
0.14557001 0.43421423 0.07033917 
0.110898815 0.1471053 0.4951518 
0.055145 0.09117586 0.17229426 
-0.3617198 -0.37337768 0.0041362043 
0.07308003 0.1714056 0.28878555 
-0.11551765 -0.40853536 -0.41151682 
0.20951673 0.30236858 0.18257247 
-0.1542062 -0.31280544 -0.36867365 
0.2344108 0.123455875 0.16342653 
-0.032464612 -0.039217625 -0.29154745 
-0.22987501 -0.0551504 0.0005709015 
0.21734177 0.21710724 -0.20131658 
-0.36948484 -0.31958786 0.050427634 
0.35667506 0.054753363 0.1519527 
-0.29216534 -0.24290144 -0.03344613 
0.110756636 0.34744933 0.17972475 
-0.18300948 -0.2551926 -0.25081405 
0.042764276 0.015427487 -0.085696794 
0.16538087 0.07276963 0.040580828 
0.30958366 0.2753858 0.20425949 
0.10199509 0.2787564 -0.16318165 
-0.14845306 -0.34464815 -0.43810543 
-0.11044468 0.16597582 -0.097492196 
-0.27101505 -0.27621904 -0.35646832 
0.024878798 0.13609849 -0.13481952 
-0.04672396 -0.0037779761 0.07225587 
-0.43267867 -0.28601253 -0.10590493 
0.024170514 -0.00844549 -0.16969827 
0.009678348 0.010688485 -0.22761725 
-0.33309507 -0.13142861 0.015489031 
-0.11401495 0.19051178 0.07737058 
-0.047239926 0.16332623 -0.14046988 
-0.02905829 -0.047588598 0.008630157 
0.21589522 0.19501942 0.5081704 
-0.22082305 -0.21415333 0.06617208 
0.029293474 -0.008454475 0.038829688 
0.24345246 0.21991761 0.4877833 
0.41662043 0.078956984 -0.23273824 
0.11891157 0.17187078 0.38204893 
0.055946287 0.2347763 0.40082917 
-0.10862202 -0.12468085 -0.19523202 
0.09412795 0.15487483 -0.14709894 
0.02400988 -0.0067581343 -0.17238723 
0.024572711 0.4320052 0.009253365 
-0.05786156 0.19178927 0.2263394 
0.24206461 0.22998142 -0.18959402 
-0.011662113 0.22580442 0.2943663 
0.008215704 -0.02503787 -0.2631094 
0.17178956 0.19156271 0.20176066 
0.21439193 0.119669266 -0.06705658 
0.37359068 0.20727845 -0.20606746 
-0.13621141 -0.025927933 -0.15853934 
-0.09184113 -0.25725392 -0.30443102 
-0.26218683 -0.21269673 -0.032857966 
0.028771061 -0.017651679 -0.17862414 
0.34197488 0.1472987 0.13511513 
0.3670828 0.22572288 0.09544233 
0.15806256 0.24396594 0.4830458 
0.15167196 0.22472255 -0.16980588 
-0.32249388 -0.37496075 -0.003314006 
0.029453022 0.024412796 -0.15203749 
0.2746271 0.113966 -0.13793711 
0.19065353 0.2539627 0.45856038 
0.051937398 0.23300658 0.3810527 
-0.31166935 -0.37181813 0.03413768 
0.31088632 0.2127741 -0.15719391 
0.2867915 0.1827113 -0.10155224 
0.08698814 0.16623302 0.21686476 
0.22791156 0.19684762 -0.21121065 
-0.17062193 -0.013733903 0.14167295 
0.16910553 0.05195317 -0.00129954 
0.3294661 0.1633927 0.14905052 
0.32880664 0.16940945 -0.23553549 
-0.22557567 0.014719757 0.09381054 
-0.17424388 0.082995705 -0.036453173 
0.43490142 0.115546934 -0.25092605 
0.20463371 0.22210048 0.45426536 
-0.27092573 0.022243 -0.1053268 
-0.09073014 0.14483726 0.09164468 
-0.26010415 -0.060618263 0.040243503 
-0.07516294 0.21305211 0.13806348 
0.35452977 0.057174593 0.17251305 
-0.20170604 0.0119648045 -0.13015853 
0.0364725 -0.06314536 -0.17755222 
-0.157769 -0.37555385 -0.31907433 
0.27314827 0.061096363 0.087077335 
0.044183414 -0.01046539 -0.011451724 
0.11108843 0.1864076 0.34605277 
-0.3163841 0.057864416 -0.19257349 
0.0419272 0.094036326 0.3509065 
-0.13248421 -0.058472544 -0.15557039 
-0.10545552 0.25857764 0.093553975 
0.10769306 0.04306155 -0.047895756 
-0.10821986 -0.05357529 -0.111057796 
0.1880949 0.08509358 0.024443263 
0.15401626 0.15468012 -0.16569334 
-0.43681666 -0.33011153 0.0060496465 
0.34160715 0.19931094 0.12901874 
-0.3375407 -0.31643897 -0.0037103475 
-0.25083986 -0.18643016 0.12546907 
-0.2597516 -0.15394868 0.115901865 
0.2645387 0.2201627 -0.058407027 
0.30732504 0.08224743 0.18529809 
-0.18635239 0.032902244 0.07568479 
0.31533292 0.13541053 0.18912207 
0.34670594 0.14803338 0.103388116 
0.14037856 0.0768989 0.07222347 
0.52482444 0.063707694 -0.21268503 
-0.3778699 -0.16365251 0.023114106 
0.010242381 0.11360066 0.32610145 
-0.004395679 0.15557383 0.35728467 
-0.1123944 0.2215795 0.071406506 
0.053207226 0.0026663195 0.022313684 
-0.4279743 -0.31842914 -0.03532235 
-0.014799703 0.31539235 -0.1265853 
-0.13575262 -0.36115468 -0.32885528 
0.108765185 0.13348433 0.38908154 
-0.35907647 -0.29770964 0.01876164 
0.22015996 0.2739861 0.17997395 
-0.22628671 -0.09774715 0.15113093 
0.32180804 0.19251916 -0.14526527 
-0.16200143 -0.38012695 -0.40071186 
0.39595282 0.15319058 -0.1183041 
0.3495383 0.16129617 0.103188634 
0.08465085 0.19057842 -0.15867756 
0.36540195 0.03754532 0.17809014 
0.33793953 0.20005645 -0.15314248 
0.30374113 0.22988354 0.1772756 
-0.20853205 -0.3747736 -0.3315044 
0.34332925 0.07980374 0.13176934 
0.14641711 0.3114102 -0.13962847 
-0.07922273 0.16160467 0.11914416 
0.120665066 0.19107908 0.49974692 
0.45630047 0.1573816 -0.23225701 
-0.15325388 -0.13485484 -0.29206803 
0.34503707 0.23282735 0.090174 
0.3280833 0.28509974 0.08238963 
-0.14483443 0.09288246 0.051464774 
0.18966384 0.24648798 -0.16981605 
0.01882811 0.088681534 -0.1417627 
-0.044148475 0.16174853 0.26850325 
0.21684623 0.34928307 -0.035187744 
0.035631474 -0.08419363 -0.25769833 
-0.22135603 -0.27449477 -0.37313983 
0.19209985 0.23409806 0.44530597 
-0.34076872 0.05375185 -0.15990536 
-0.24410482 -0.0121524045 0.03545071 
0.2802166 0.22688216 0.20498963 
0.034526367 0.3944463 0.14868648 
0.3404141 0.2759921 0.2656993 
0.051307693 0.13503414 0.21666946 
0.48981902 0.050305888 -0.20782334 
0.14941339 0.1820005 0.43103567 
-0.13620348 -0.33380473 -0.3842284 
0.5542298 0.03326069 -0.17070691 
0.13204932 0.22842818 0.43653518 
-0.21260981 0.0015611901 -0.00014586303 
-0.050736926 -0.10529277 -0.30529708 
-0.16209213 0.101515666 -0.06549499 
-0.13608024 -0.055851568 -0.2152428 
0.1327313 0.22810447 0.21087499 
0.14200532 0.078931086 0.09948376 
0.36098444 0.050249763 0.1282567 
0.26950124 0.19639324 -0.048862085 
0.06336765 0.13641317 0.47114083 
0.13135208 0.12850048 0.46694374 
-0.18496367 0.05325283 -0.03327361 
-0.035090953 0.004312147 -0.2734517 
0.2035638 0.25276044 0.19039606 
0.20697722 0.08866576 -0.009441359 
0.02808967 0.39296284 -0.07676173 
0.2735956 0.19989043 0.49962205 
0.55226034 0.022230841 -0.18701759 
0.12872532 0.19427976 0.3690387 
-0.18003225 -0.32803288 -0.43060014 
-0.3867555 -0.34421945 0.08224526 
-0.043972116 0.23419087 0.22749345 
-0.014815786 -0.12665918 -0.30553228 
-0.06988027 0.13188943 0.10825924 
-0.17362964 -0.087142535 -0.0045004464 
0.2531785 0.32378137 0.14505439 
-0.24046217 0.0006302122 0.073162004 
-0.2641902 -0.081502795 0.09256638 
0.32554662 0.10879034 0.11314689 
0.43888295 0.13754861 -0.13667467 
0.07056498 0.22475009 0.3518821 
0.08335864 0.20018926 0.47811434 
0.2973574 0.21606417 -0.20066059 
0.0071132425 0.2654994 0.23176403 
-0.15859285 0.14487676 -0.021736646 
-0.15475284 0.09056982 0.03719451 
0.2011696 0.2289037 -0.19349983 
-0.13416727 0.10711942 -0.117320046 
-0.21262293 -0.15002818 0.015105243 
0.12818094 0.21972905 0.4857785 
-0.024339218 -0.18588087 -0.30978897 
0.13305488 0.43848622 0.054833155 
0.548921 0.052747555 -0.18555897 
-0.24611886 -0.2159232 -0.014593348 
-0.22706182 -0.031571273 0.12917073 
0.030072138 -0.030589996 -0.16948049 
0.22399756 0.19468912 0.49017864 
-0.18433955 -0.3111048 -0.40590054 
0.5357869 0.13116339 -0.13029031 
0.17168841 0.4267431 0.05600593 
0.22876614 0.11390965 0.15066415 
-0.14862713 -0.27637482 -0.3599608 
-0.016882138 0.013630053 0.060276076 
0.33149034 0.14649706 0.08488428 
0.26700133 0.20743586 -0.041219644 
0.32043806 0.099417225 -0.22220631 
0.5277079 0.10531977 -0.13581172 
0.13716431 0.17571683 0.20789477 
0.030083714 0.23234868 -0.15841535 
0.3609436 0.07976593 -0.22410512 
0.5227733 0.044885676 -0.2119916 
0.28913444 0.29920393 0.26094383 
0.1361201 0.19257075 0.39657038 
-0.04288747 0.22661236 0.23989782 
0.27534172 0.21395968 -0.20873351 
0.4148906 0.19976696 -0.16117427 
0.082279816 0.22557347 0.35722783 
-0.14382663 0.10881604 -0.10121114 
0.19004886 0.2329241 0.49775216 
0.019837318 0.34407124 0.18119141 
-0.19220608 -0.013982838 0.13842845 
0.026116095 0.29635394 0.20510396 
-0.06828074 0.012447461 -0.26580828 
-0.16265772 -0.30763417 -0.32911414 
0.21603458 0.39254126 0.08078102 
0.15178667 0.27887744 -0.14922515 
-0.044344086 0.1806174 0.2867039 
-0.24094164 -0.13970247 0.12870605 
-0.11510349 -0.11486575 0.09408571 
0.3326698 0.2690723 0.06798338 
-0.07756726 -0.067443565 0.044698212 
0.25780874 0.2624958 -0.038081504 
-0.0680962 -0.025917346 0.08512113 
0.08225708 0.047144122 -0.062764026 
0.26804274 0.34112978 0.05237481 
-0.058479514 0.1585208 0.14809985 
-0.060474023 -0.059323423 0.007130481 
0.22063483 0.39453992 0.06321433 
0.111555316 0.10167255 0.4399883 
0.31275955 0.25513074 0.15756047 
-0.017763695 0.40756723 -0.0020111299 
0.16044565 0.20167583 -0.18918122 
0.5348127 0.12915193 -0.19611715 
0.08307027 0.24155842 0.4179933 
-0.06945826 -0.058466047 -0.08973811 
-0.25416613 -0.24028485 0.021606715 
-0.42698064 -0.32842708 0.05356904 
-0.19187741 0.03444922 -0.12939292 
-0.038101315 0.23946808 0.23951629 
0.30485553 0.30639648 0.25923425 
0.12911919 0.1198253 0.42321548 
-0.061901722 0.17967659 -0.13356762 
-0.31876662 -0.26614562 -0.028926902 
-0.23631237 -0.23303607 -0.31980225 
0.09393476 0.33585885 0.18462856 
-0.05085335 -0.03891719 0.056079544 
-0.09075839 -0.08060692 0.0397211 
0.16690154 0.07767655 0.042949576 
-0.09559089 0.2713705 0.11348536 
-0.0614978 -0.0323174 -0.2893908 
-0.16137579 -0.021050211 0.14449699 
0.040851083 0.19932608 -0.16261327 
0.010898664 -0.08198105 -0.2890031 
-0.36511514 -0.29259473 -0.062111463 
-0.29912323 -0.30748153 -0.35259107 
0.017724846 0.34387374 0.18110678 
0.16715282 0.28982094 0.19934772 
-0.3716025 -0.25923344 -0.064966336 
-0.38851327 -0.23908672 0.04330227 
0.08156911 0.35088083 0.1808485 
0.16336791 0.18013568 0.16363418 
-0.264737 -0.16829026 -0.021474881 
-0.20894533 0.04480648 -0.078138016 
-0.0025610712 -0.018534722 0.034050304 
0.16378555 0.057808455 -0.050794262 
-0.15186197 0.10112646 -0.08781286 
-0.37819865 0.036051784 -0.2059677 
0.0018727848 0.19498463 0.36124915 
-0.14618964 -0.14153819 -0.25965536 
-0.16962467 0.0810762 0.008722641 
0.045350716 0.1954687 0.4717744 
0.1300759 0.13560545 0.16857903 
-0.061602425 0.028708905 -0.2538008 
0.34923667 0.073878415 0.14921583 
-0.12541689 0.071591765 0.08040258 
0.06576073 0.23578602 0.3783165 
-0.06583163 0.27826586 0.15085042 
0.10019578 0.1519162 0.33188766 
0.13761528 0.23257913 0.48252454 
-0.14944914 -0.2046867 -0.36813182 
0.08006029 0.31785747 -0.14892457 
0.04072522 0.23065765 0.40383834 
0.17343 0.24590267 0.44917348 
0.0334689 0.13059233 0.44150755 
-0.16058496 -0.13537428 0.14436617 
0.15757199 0.28962138 0.20027365 
-0.2354588 -0.2025421 0.0036089332 
0.15836245 0.052394733 -0.043863405 
0.34695947 0.2864002 0.10196812 
0.1434499 0.32272086 0.17469093 
-0.046904944 -0.22690515 -0.28244746 
0.037486736 -0.057847474 -0.2036108 
-0.20975195 -0.10642738 0.1580933 
-0.26874033 -0.23465414 -0.024616875 
-0.125277 -0.09201302 -0.24003533 
0.25374562 0.32890823 0.011609962 
-0.33654156 -0.31472394 0.0028827284 
-0.12645298 -0.4109798 -0.3660254 
0.43987995 0.09509763 -0.23907606 
-0.015542199 -0.16587192 -0.22578143 
-0.11118666 0.15819664 0.07237813 
0.036870345 0.3121958 0.20237644 
0.05989271 0.008131239 0.043582104 
0.16746402 0.34369776 -0.106563486 
0.08877067 0.1389642 -0.13607433 
0.3343442 0.22063024 0.07038087 
0.07073857 0.16612813 0.29666746 
0.10435512 0.20812781 0.3484628 
-0.30076042 -0.19254756 0.10056857 
-0.15212287 0.011100214 0.12589757 
0.5585218 0.13681461 -0.15669657 
-0.13890186 0.1718158 -0.046168327 
0.2639581 0.21702197 -0.10166093 
-0.19964199 -0.107534036 -0.0032324768 
-0.28246605 -0.2771415 -0.3417611 
-0.2834875 -0.23265433 -0.03615263 
0.026905598 0.43419704 0.06520218 
-0.090330146 -0.06228525 0.08699074 
0.4485917 0.14687638 -0.24456301 
-0.29996997 -0.18385251 0.102030374 
0.081501134 0.01970367 0.03849351 
-0.33047155 -0.36687544 0.03696743 
-0.18400848 0.015833655 -0.05055437 
0.47682342 0.1571582 -0.1442875 
0.33762053 0.09321381 0.11298336 
-0.048012104 0.29688945 0.161923 
0.42044944 0.07948848 -0.23442338 
-0.027740303 0.2916304 0.17087658 
0.025522646 0.21882758 0.45104095 
0.2979267 0.28553095 0.1412428 
-0.20155759 -0.03670355 0.14835209 
0.4377797 0.17593345 -0.24892434 
-0.17715004 0.023796566 0.11296526 
0.24457072 0.27547854 0.17908274 
0.05474011 0.20494823 0.31577763 
0.4513022 0.1421022 -0.12626806 
-0.06769299 -0.17431179 -0.34315276 
-0.11670882 -0.20810194 -0.21427104 
-0.00928355 0.055972308 0.09703081 
0.1889862 0.318541 -0.112773895 
0.035029493 0.24030569 0.2712509 
0.3186999 0.09586871 0.17490788 
-0.113215454 -0.08583042 -0.14781354 
-0.21412162 -0.19987659 -0.2927764 
-0.17017181 -0.39018264 -0.3522507 
0.3277079 0.21553053 0.15636726 
-0.23474047 -0.11962161 0.006529298 
-0.17189227 -0.16473106 -0.25278643 
0.14026725 0.14487499 0.15400538 
0.21367708 0.19725823 0.1983161 
-0.06428023 0.27779213 0.1524451 
0.14055775 0.29849988 0.19513042 
0.18326396 0.25601044 -0.15061268 
-0.21681046 -0.32173055 -0.40360984 
-0.1602396 -0.025907805 0.14563015 
-0.19496654 -0.29988772 -0.39729834 
-0.38357082 -0.3578123 0.0012924336 
-0.26348537 -0.324025 -0.3571621 
0.26918182 0.29218093 0.15360862 
0.34913966 0.0699029 -0.19217981 
0.50203705 0.0478267 -0.16910672 
0.27494994 0.19607237 0.20258623 
-0.029747967 0.34664625 0.14687626 
-0.26752532 -0.32631895 -0.34570482 
0.13739577 0.39378583 -0.074288554 
0.08472601 0.055776846 0.13604754 
0.13534817 0.24935843 0.19581126 
-0.33072677 -0.20581552 -0.05691338 
0.07933821 0.4368621 0.07599643 
0.10335663 0.082278974 0.15800643 
0.31984317 0.20579459 -0.17477216 
0.20178816 0.40759048 0.022380516 
-0.12817782 -0.18936552 -0.21834184 
0.13085641 0.4362459 0.0040540583 
0.4931341 0.14614832 -0.20635249 
0.33067885 0.25892168 0.2601289 
-0.1429333 -0.086212225 -0.0015861967 
0.058189053 0.44440594 0.033954967 
0.37217593 0.19431023 -0.24800661 
-0.0013768905 0.36940408 0.15354636 
-0.14285107 -0.15175113 0.07254613 
-0.3186464 0.065314904 -0.19085285 
-0.17475101 0.086239114 -0.027693728 
0.1837897 0.20312175 0.45550662 
0.20996247 0.21194065 0.4706312 
0.16266802 0.22693194 0.50136596 
0.06731543 0.1382398 -0.1356771 
0.5311832 0.07442818 -0.20638767 
-0.16672535 0.09207655 -0.06985586 
0.23101522 0.13108383 0.05875789 
0.11533105 0.123211235 -0.12606137 
0.31011683 0.14052309 -0.1283647 
0.3930908 0.251876 0.11945151 
-0.31224823 -0.20040198 -0.05279047 
0.14523745 0.08195177 0.08837679 
0.32933837 0.030605532 0.19335927 
-0.09112609 -0.046147287 -0.0681159 
-0.18939187 -0.1967061 -0.35223594 
0.13899349 0.3912547 0.14883694 
0.42177653 0.3026242 0.06128328 
-0.042935453 -0.06181393 -0.089044206 
-0.047622766 0.15929191 0.21706752 
0.20419699 0.088498816 -0.04678425 
0.024977148 -0.0041999193 -0.2095268 
0.101909004 0.09578029 0.41691828 
-0.34647965 -0.2739767 -0.03966211 
0.14399922 0.12583396 0.48644057 
0.4545134 0.13724472 -0.13807072 
0.21901204 0.26878998 0.18353897 
0.07646951 0.011391422 0.027413554 
0.57459694 0.071359366 -0.1578841 
0.44967815 0.19527832 -0.18332903 
0.0071050418 -0.15760127 -0.23905906 
0.053445507 0.3821258 -0.098252006 
0.018231379 0.26780936 0.23185378 
-0.1445723 -0.044990975 0.1443265 
-0.09972813 0.31124365 0.050852034 
-0.07001849 0.26108342 -0.10451139 
-0.07906471 -0.18693787 -0.22635162 
0.22119649 0.218588 0.51275766 
-0.044705544 -0.15791245 -0.32597935 
0.12809011 0.10391578 0.4207868 
-0.16349423 0.12933826 -0.02188196 
0.110176526 0.16273835 0.20200327 
-0.09714679 -0.068848945 -0.013593829 
0.22986124 0.2017137 0.48737997 
0.06362248 0.044370744 -0.07473455 
0.2894047 0.22744447 0.019507209 
0.22868325 0.123454005 -0.1890327 
0.0016686879 -0.09848149 -0.14982152 
-0.31519005 -0.21063422 0.08910199 
0.08738927 0.17490977 0.22191025 
0.13845007 0.07473031 0.057679642 
0.20617962 0.11773508 0.12977539 
-0.16075242 -0.24104497 -0.36931515 
0.21980327 0.121894985 0.15013814 
-0.07242256 -0.143912 -0.33145306 
0.21258214 0.12054468 0.5278354 
0.075527474 0.34678188 -0.13166282 
0.1954505 0.22017106 0.20164618 
0.26630476 0.15705736 -0.23125762 
0.4751018 0.15802011 -0.20975618 
0.0021355464 0.1970319 0.36317864 
-0.3042733 0.044549808 -0.18510799 
0.29109976 0.06596238 0.091101855 
-0.010952635 0.33992457 0.17004137 
0.06910864 0.2469964 -0.16479641 
-0.3231494 -0.14070949 0.07376109 
0.25620854 0.35601112 0.04704734 
0.4306901 0.19926465 -0.17581153 
-0.01392515 -0.14957714 -0.19890596 
-0.006490568 0.40095195 0.10488373 
-0.35479563 0.066542216 -0.18017823 
-0.32756734 -0.39179277 0.05043996 
0.27233788 0.32535782 0.03778635 
0.19630896 0.1991867 0.20148243 
0.09466414 0.1355429 0.36635616 
0.11338257 0.34738517 -0.12309032 
-0.18136859 -0.1813279 0.062942244 
0.1135305 0.4347148 -0.015746092 
0.14898223 0.1442762 -0.13600019 
0.24874045 0.10470156 0.07506482 
0.1355673 0.18194862 0.40469858 
-0.29761416 -0.25293908 0.06740215 
0.55598515 0.17298912 -0.13353261 
-0.008373728 0.035576716 0.07802598 
-0.13425079 -0.37494457 -0.4174284 
-0.23208182 -0.26594752 -0.27901396 
-0.03632734 -0.17642792 -0.23229076 
0.28417772 0.09747032 0.07851057 
-0.16305575 0.122488886 0.008718707 
0.11525574 0.035125807 -0.025114715 
0.1914557 0.1277836 -0.1697935 
0.10543623 0.17852499 0.33282402 
-0.08055127 0.041383464 -0.22643581 
0.34023833 0.2820742 0.10712191 
0.32998627 0.12369292 0.10393072 
-0.06355762 -0.118580714 -0.16536725 
0.037164837 0.28561103 -0.1494111 
-0.101763576 -0.42521715 -0.3656999 
-0.07115341 0.36113217 0.056731153 
-0.070999086 0.35766932 0.042505093 
0.16716069 0.20021257 -0.19316435 
-0.09584483 0.046596777 -0.19975623 
-0.030076459 0.38858005 -0.014465824 
0.23546615 0.1607374 0.5295057 
-0.013179541 -0.14433038 -0.19213334 
-0.006522993 0.16374473 0.4269857 
0.33141178 0.2826643 0.2392874 
-0.12704507 -0.107442275 0.12829918 
-0.29820508 -0.30598044 -0.30668852 
-0.3424954 0.05532504 -0.16137697 
-0.07449577 -0.10838433 -0.3008029 
-0.40596002 -0.3404212 -0.0073682005 
0.07792277 0.08846222 0.40143752 
-0.042484775 -0.078366496 -0.049061645 
0.30512503 0.16532862 0.18938525 
0.2236782 0.13287026 -0.06583067 
0.15587255 0.101224646 0.069661 
0.24306943 0.20572649 0.48857415 
0.57552856 0.032278284 -0.12331308 
0.10425523 0.36027986 -0.11802398 
0.0061657107 0.13514036 -0.14412937 
0.19302046 0.40559322 0.087128825 
0.22980903 0.12537816 0.52822405 
-0.031956673 -0.20738249 -0.30441263 
0.040647738 0.43972617 0.0123788845 
0.35302252 0.073253386 -0.20183694 
0.16325544 0.14629419 0.4705589 
-0.2587991 -0.24061045 -0.0026191329 
-0.14167754 -0.12768859 0.032663673 
0.031613853 0.10780732 0.28616166 
0.3293307 0.22908607 0.23698872 
-0.037405465 0.19725698 0.28550327 
-0.024450788 -0.10024266 -0.13645186 
0.083182745 0.23622285 0.3822126 
0.1727296 0.4229099 0.07506835 
0.55723 0.12770373 -0.17909695 
0.18827789 0.3006184 -0.12410442 
0.25865114 0.29168212 0.15805057 
0.57552975 0.117420934 -0.13915978 
0.50718296 0.17154504 -0.17239521 
0.24752648 0.10733428 -0.1649552 
0.28338367 0.2244484 -0.14240351 
0.3562453 0.2176158 0.099493034 
0.27142838 0.15741058 0.50486094 
-0.23557188 -0.15678161 0.13074346 
0.11419829 0.3236312 -0.1454043 
0.022140706 0.09387197 0.15789807 
-0.27733853 -0.12619872 0.013985911 
0.38185343 0.19534388 -0.24782154 
0.087394126 0.14313754 0.32126793 
-0.22365077 0.004411971 0.10531395 
0.5401346 0.12311765 -0.19454658 
-0.14880244 0.10814391 0.045064732 
-0.23622355 -0.34051198 -0.30673546 
0.1442237 0.06403775 -0.06399978 
-0.26609537 -0.10043261 0.092552006 
0.14133699 0.116096206 0.14080825 
0.17049311 0.19214195 0.19648589 
-0.20224611 0.035198376 -0.0072193397 
0.20477536 0.21512754 0.20036653 
0.5300948 0.028949779 -0.16528495 
0.0045818794 -0.06522035 -0.13169748 
-0.082204305 -0.061311666 -0.039047778 
0.055399675 0.13910033 0.46716186 
-0.08870727 0.03715535 0.09876632 
0.02733727 0.30359712 0.2013615 
0.29034847 0.19028345 0.20121118 
-0.04543025 -0.047368918 0.023029685 
0.17336239 0.2564108 0.18706685 
0.01833349 -0.033626422 0.005254946 
-0.28285527 -0.11287009 0.036500555 
0.1226841 0.4412615 0.037825406 
0.30503628 0.30112684 0.29648006 
0.4112769 0.18187246 -0.25312623 
0.44442287 0.12019589 -0.2459067 
0.16332674 0.11952817 -0.1059491 
0.42385596 0.18680887 -0.14019445 
0.23639253 0.24385604 -0.110799916 
-0.027772302 0.33212098 0.15426914 
-0.21910602 -0.2230312 -0.34508237 
-0.10343758 -0.060324494 -0.03433071 
0.5863586 0.046090484 -0.11628715 
0.022652894 0.12034282 0.17663571 
-0.09298274 -0.17677866 -0.22585657 
0.1403099 0.19141531 0.4088173 
-0.054248847 0.008573398 -0.27171457 
0.2779457 0.28006938 0.18799135 
0.39790303 0.1980074 -0.22127546 
-0.27941057 0.055661913 -0.1369717 
0.26056626 0.31142408 0.00999923 
-0.29295185 -0.24566452 -0.031648345 
-0.027426856 -0.062421236 -0.09039338 
-0.32598978 -0.16983481 -0.04186345 
0.15199077 0.15976258 -0.16693588 
0.02570403 0.011343619 -0.1613933 
-0.011138605 0.09222689 -0.15959837 
-0.30732736 -0.15901504 0.0907891 
-0.1691107 -0.16899842 0.12487582 
-0.17296578 0.030977478 0.09156994 
-0.35058993 -0.23878431 0.058838174 
0.010696145 0.42291847 -0.011339513 
0.33924842 0.288753 0.0842556 
-0.0050198813 -0.043449216 0.011463003 
-0.14486575 0.16062628 0.015538469 
0.01224296 0.35724276 -0.11148854 
0.23826486 0.15018372 -0.08221246 
-0.4113 -0.25976625 0.014190795 
-0.36498538 -0.2034369 -0.058782466 
0.27694836 0.06237895 0.16994227 
0.30747637 0.19871154 0.033169225 
-0.13763309 -0.3730031 -0.32345986 
0.46323276 0.10697554 -0.22401807 
0.03293487 -0.085273825 -0.26119545 
0.030693123 0.066072196 -0.13552278 
-0.12238689 -0.15535633 -0.35167432 
-0.10388306 -0.13784797 -0.22235866 
-0.45881805 -0.29644892 -0.05675829 
0.021428566 -0.076421395 -0.15646215 
-0.19655952 0.044214074 0.032951914 
0.11369877 0.05220229 0.04067795 
-0.17364468 -0.36514354 -0.41069177 
0.31707096 0.25267923 0.15408285 
0.23447199 0.11736082 -0.11933754 
0.0935387 0.44467527 0.02593616 
0.3200284 0.20108429 -0.15124601 
0.039823283 0.14526749 -0.13610083 
0.05721154 0.25745627 0.23189849 
-0.094950065 -0.2518683 -0.32855007 
-0.3350727 -0.20448133 -0.05698557 
0.091817334 0.117407255 0.3723859 
0.21113378 0.38624665 0.10409607 
-0.34047195 -0.36157954 0.074879855 
0.3224028 0.11937714 -0.23533304 
0.30727905 0.23756441 0.16755126 
0.32379392 0.13706115 -0.24153878 
-0.10129912 0.2876622 0.07989839 
0.115051456 0.41333866 -0.05449834 
0.31367087 0.1884216 -0.21489249 
-0.12778306 -0.038911533 -0.1354171 
0.33196482 0.05132066 0.19223647 
0.20795871 0.34494194 -0.050777003 
0.28875726 0.16959035 -0.1068072 
-0.37153852 -0.36303443 -0.008913002 
0.34710813 0.18912382 0.09114382 
-0.08938128 0.0132389655 -0.25513116 
0.23847151 0.15373874 0.032986023 
0.30641192 0.26206225 0.2403454 
-0.017792283 0.19265442 -0.13485487 
-0.0718598 0.358621 0.04585311 
-0.09040139 -0.17605822 -0.3481858 
-0.27024233 0.029764932 -0.1694712 
-0.18908699 0.048859596 -0.061437573 
0.24259423 0.17189349 -0.0019325182 
0.0031005782 0.41025603 -0.030298853 
0.11357716 0.39080837 -0.085961185 
0.16629891 0.16688105 -0.19034143 
0.030442288 0.15095018 -0.13726993 
-0.1943265 -0.34986132 -0.43205965 
0.24946377 0.24427696 -0.158047 
-0.18064724 -0.1941789 -0.35637805 
0.19486542 0.4156185 0.057730295 
-0.2423034 0.04951786 -0.11997415 
-0.18579106 0.060321376 0.03097641 
-0.045165192 -0.13797417 -0.18496767 
-0.16639489 0.09860754 -0.055743013 
0.03026785 -0.04726271 -0.25328603 
0.3318566 0.2501346 0.065815195 
0.0070532043 0.14037775 -0.13913444 
-0.028968954 -0.16376188 -0.31939852 
-0.23170356 0.040081628 -0.1423686 
0.12712385 0.036436148 -0.030231848 
-0.2368926 -0.22962648 0.07604986 
-0.3904144 -0.33996257 -0.042772904 
-0.40178248 -0.34279773 0.08382911 
0.1989457 0.4133992 0.050632566 
-0.013870095 0.1320862 0.31684408 
-0.28205243 -0.24668877 0.076466374 
0.11312598 0.10031231 0.42484048 
-0.25367284 -0.04836079 0.030475741 
-0.10552605 -0.15242483 -0.34853974 
0.12458186 0.1840454 0.38558847 
-0.15453026 -0.28057468 -0.361098 
-0.003169384 0.19505534 0.4187258 
0.080401264 0.015322199 -0.021226933 
0.10038737 0.100809924 0.43579605 
-0.11171422 -0.03783102 0.12332344 
-0.032323 0.14249645 0.22033128 
-0.2440281 -0.23250711 0.028664129 
0.25426775 0.26316452 -0.062872835 
0.09269073 0.1044533 0.35324764 
0.29410526 0.19467215 -0.11734122 
0.35608223 0.05912174 0.15577616 
0.04047198 0.04249379 0.11538068 
0.21434222 0.38646036 0.00032854627 
-0.13299415 -0.2139388 -0.21556467 
-0.057584126 0.048472576 -0.22164492 
-0.22426759 -0.02758667 0.12980655 
-0.13578571 -0.03401743 -0.15186454 
-0.11544819 -0.4084126 -0.3975051 
0.13606237 0.13930564 0.16016813 
-0.43060717 -0.3272509 0.038054485 
-0.024716888 0.12768757 0.14782812 
0.059772566 0.017691689 0.060857184 
0.25218555 0.22237872 0.5045907 
-0.27460065 -0.10800274 0.074057296 
-0.12999617 0.1557192 0.053798888 
-0.0889204 -0.0748455 0.028700154 
-0.068211704 -0.069865584 -0.03088301 
-0.098912954 0.30888557 0.031670496 
-0.074916184 0.20316969 -0.10623512 
0.38135403 0.159025 -0.26270694 
0.16459948 0.24798058 0.48128226 
-0.30074763 0.050915357 -0.13543318 
0.20039923 0.26904505 0.18192987 
0.053751834 -0.00544044 -0.004819655 
-0.3637701 -0.27066946 0.035782345 
-0.06985296 0.1288283 0.10604583 
0.21959351 0.124058545 0.06177369 
0.45920593 0.15937969 -0.13542798 
0.12882765 0.22999723 0.39759526 
0.06917589 0.13722514 0.2066814 
0.016751971 0.2267263 0.43232113 
0.09493096 0.36559907 0.17252623 
0.04009321 -0.061309345 -0.21870074 
0.07606447 0.41394514 0.12474055 
0.07361609 0.22656891 0.3565389 
0.21895237 0.1409952 -0.005655688 
0.28367555 0.30724677 0.057865802 
0.26672214 0.14188753 -0.105071045 
-0.009338843 0.20612207 -0.14562586 
-0.18285301 -0.33424938 -0.4324293 
-0.44143173 -0.29826203 -0.077282056 
-0.19266164 -0.11421622 0.005426402 
-0.15968354 -0.0030574345 0.13497843 
0.082315795 0.059184562 0.14046952 
-0.28276294 -0.18356879 0.10970086 
0.059284814 0.12961806 0.46150848 
-0.05560373 -0.10679413 -0.14942475 
0.55602074 0.03295001 -0.17730328 
0.087907046 0.088586204 -0.104657084 
0.264619 0.2447951 -0.012145021 
-0.26871067 -0.20975438 0.10875797 
-0.17250393 0.098475724 -0.020046484 
-0.281366 0.039360553 -0.17425387 
0.008709303 0.054296266 0.10130484 
0.27757868 0.3408683 0.11396359 
0.0109001165 0.2096627 0.3584932 
0.18950275 0.124594465 -0.16171992 
0.46090725 0.11906561 -0.14417598 
-0.037322592 0.37341645 -0.045019206 
-0.051768724 -0.033757392 -0.29032928 
-0.12491627 -0.37101772 -0.41046748 
-0.12051203 0.23188275 0.008538727 
0.20024666 0.11159201 0.0830386 
-0.16122913 0.13256913 -0.030119056 
0.08672534 0.027842741 -0.025617817 
-0.25409326 -0.2400464 0.008080442 
0.28877297 0.10319177 -0.1676478 
-0.1289266 -0.08620107 -0.20196046 
-0.09115413 -0.40418717 -0.41928843 
-0.11414653 -0.041142117 -0.25791723 
-0.26611486 -0.33328712 -0.3320956 
0.3502227 0.19442973 0.09394483 
0.02432588 -0.078166 -0.1614775 
-0.10398762 0.24104072 -0.026610527 
0.10856815 0.05107688 0.051689032 
0.13402793 0.14442298 0.5192434 
0.26509717 0.26966918 -0.03130132 
-0.08563908 -0.07138846 0.045454383 
-0.049717195 0.22540155 0.19774218 
0.06728861 0.16529635 0.2662859 
0.30539355 0.029790618 0.15183759 
0.12078061 0.051603798 0.07327416 
0.013792493 0.041607924 -0.17348622 
-0.19888566 -0.20329855 0.11328391 
-0.034648925 0.31034 0.1664337 
-0.047040604 0.30785605 -0.10170667 
0.16813362 0.414124 0.10272243 
0.34540665 0.1240811 -0.24975802 
-0.09025164 -0.4079125 -0.42022893 
0.17918499 0.19308792 0.45458707 
-0.086135864 0.15185252 0.100429945 
0.20036164 0.15649553 0.15659264 
0.2975272 0.19882275 0.2025941 
0.039779935 -0.071100585 -0.2395682 
-0.12920973 -0.033731747 -0.052246056 
-0.11963581 -0.07348944 -0.14466508 
0.2022774 0.32128033 0.18110096 
0.3681923 0.20151071 -0.14898407 
-0.11898562 0.017677912 -0.21671379 
0.027740361 0.043874122 0.10931832 
-0.02352106 -0.030922458 0.027389426 
0.0034268906 -0.05129677 -0.2812674 
-0.25701547 -0.21783845 -0.025711479 
-0.043923065 0.2512315 -0.13006213 
0.05666608 -0.0022729132 -0.0018093057 
-0.18402295 -0.32389238 -0.30742484 
0.05237691 0.07350625 0.15224692 
-0.12899351 -0.28118208 -0.31561226 
0.35558945 0.09537514 -0.1575037 
0.2060755 0.11608466 -0.14983185 
-0.17380156 0.03017591 0.09286046 
-0.29962325 -0.28531352 -0.3240336 
0.046676688 0.12977193 0.2091298 
0.25390115 0.35150146 0.03924673 
0.24261269 0.15368018 0.5186461 
0.35548788 0.24666725 0.0764102 
0.014497391 0.13017525 0.4192067 
0.32001647 0.28594947 0.102648914 
0.45031703 0.17428355 -0.2338194 
-0.09403886 0.26244885 0.11947587 
0.23612627 0.36162806 0.019938638 
0.5713358 0.15393393 -0.107556485 
0.11877722 0.20209031 0.49639183 
-0.20794621 -0.35281804 -0.38014975 
0.3334864 0.16436493 -0.24079944 
-0.029133404 -0.12687677 -0.15907368 
-0.32397887 0.0699837 -0.16462687 
0.2409392 0.056688245 0.13712244 
0.37579232 0.28270593 0.11380002 
0.5312712 0.08457785 -0.20832433 
0.16307658 0.048666373 -0.02960339 
0.1190838 0.41933912 0.11793062 
0.40266517 0.2015753 -0.16072522 
-0.09197111 -0.3850459 -0.3991001 
-0.3744488 -0.38438585 0.07268869 
-0.19067718 -0.06250264 0.1555127 
0.06976351 0.22270705 0.24699394 
0.045609996 0.40558654 0.14001732 
0.1080048 0.23409294 -0.15826523 
